15.644,40.962,16.892,0,26
15.649,40.978,13.794,0,23
14.594,32.352,-2.210,0,7
14.381,30.634,-2.204,0,7
15.888,42.643,17.153,0,26
15.705,41.082,4.340,0,13
15.695,40.836,18.369,0,27
15.934,42.697,13.522,0,22
16.036,43.497,12.872,0,22
16.076,43.501,11.539,0,20
15.757,40.893,-2.150,0,7
15.808,40.804,0.340,0,9
13.653,24.284,-2.627,0,6
15.796,40.563,13.069,0,22
15.816,40.491,17.636,0,26
15.724,39.643,-2.226,0,7
15.541,38.272,-2.224,0,7
15.841,40.305,1.908,0,11
15.205,35.546,-2.201,0,7
14.932,33.518,-2.214,0,7
15.911,40.232,18.993,0,28
15.934,40.150,16.881,0,26
15.958,40.312,14.943,0,24
15.939,40.164,13.819,0,23
15.961,40.312,11.894,0,21
15.968,40.313,4.854,0,14
15.970,40.313,3.597,0,12
15.987,40.288,16.051,0,25
15.993,40.298,11.026,0,20
16.002,40.304,2.749,0,12
16.027,39.897,18.198,0,27
16.450,42.820,18.067,0,27
16.153,40.714,9.240,0,18
16.071,40.067,-1.555,0,7
14.843,31.577,-2.208,0,7
14.535,29.445,-2.201,0,7
13.657,23.377,-2.632,0,6
16.618,43.700,13.451,0,22
15.315,34.712,4.339,0,13
16.077,39.773,13.069,0,22
16.401,41.980,13.573,0,22
15.597,36.403,-2.194,0,7
15.339,34.654,-2.207,0,7
15.685,36.858,4.342,0,13
14.136,26.379,-2.357,0,6
16.744,43.815,16.821,0,26
16.783,43.805,12.624,0,21
16.162,39.515,17.492,0,26
16.674,42.854,13.169,0,22
16.203,39.705,4.331,0,13
14.467,28.267,-2.201,0,7
16.183,39.452,19.121,0,28
16.683,42.469,17.306,0,26
16.209,39.391,13.809,0,23
16.258,39.260,6.319,0,15
16.274,39.206,14.672,0,24
16.275,39.204,12.490,0,21
16.276,39.203,11.631,0,20
16.276,39.201,10.795,0,20
16.278,39.202,9.187,0,18
16.280,39.208,8.065,0,17
16.280,39.204,7.242,0,16
16.293,39.149,18.345,0,27
16.293,39.142,16.720,0,26
16.294,39.143,15.902,0,25
14.141,25.576,-2.371,0,6
16.334,39.083,-2.085,0,7
16.342,39.023,10.016,0,19
15.363,32.637,-2.213,0,7
16.404,38.848,13.222,0,22
16.442,38.733,17.608,0,26
16.461,38.670,19.130,0,28
16.465,38.676,15.254,0,24
16.466,38.675,14.065,0,23
14.534,27.239,-2.201,0,7
16.491,38.616,8.682,0,18
16.492,38.611,6.725,0,16
15.069,30.141,-2.199,0,7
13.590,21.586,-2.637,0,6
16.530,38.502,12.132,0,21
16.530,38.501,11.295,0,20
16.533,38.502,7.754,0,17
16.066,35.754,-2.194,0,7
16.547,38.446,16.389,0,25
16.552,38.443,9.488,0,18
13.782,22.580,-2.632,0,6
16.565,38.387,18.368,0,27
15.757,33.709,-2.209,0,7
16.591,38.337,10.445,0,19
16.649,38.171,12.854,0,22
16.173,34.789,-2.198,0,7
15.470,31.047,-2.204,0,7
16.776,37.837,-2.158,0,7
15.090,28.826,-2.200,0,7
14.339,24.811,-2.495,0,6
16.691,35.735,6.613,0,15
16.719,35.630,13.149,0,22
16.817,36.039,-2.189,0,7
15.994,32.064,-2.210,0,7
13.392,19.465,-2.650,0,6
16.756,35.537,9.357,0,18
16.804,35.632,7.517,0,16
16.783,35.438,16.884,0,26
16.823,35.624,15.987,0,25
16.822,35.617,15.137,0,24
16.819,35.596,12.139,0,21
16.297,33.075,-2.205,0,7
14.343,23.863,-2.618,0,6
17.093,36.619,12.569,0,21
15.227,27.870,-2.199,0,7
14.825,25.995,-2.204,0,7
17.159,36.653,11.595,0,20
15.620,29.431,-2.197,0,7
17.245,36.672,15.816,0,25
16.708,34.178,-2.198,0,7
15.869,30.294,-2.202,0,7
17.235,36.352,9.263,0,18
16.953,35.044,-2.195,0,7
16.251,31.245,-2.207,0,7
15.200,26.733,-2.203,0,7
17.798,37.151,3.027,0,12
17.605,35.987,-1.982,0,7
18.096,37.890,4.297,0,13
17.669,36.141,0.968,0,10
14.454,23.016,-2.621,0,6
15.039,25.213,-2.205,0,7
17.455,34.754,6.701,0,16
16.562,31.210,4.354,0,13
16.888,32.476,-2.203,0,7
15.904,28.584,-2.197,0,7
17.642,35.414,17.761,0,27
17.540,34.785,7.967,0,17
17.267,33.583,-2.200,0,7
17.591,34.791,16.457,0,25
17.596,34.800,11.694,0,21
18.070,36.592,-0.457,0,8
17.523,34.474,-2.201,0,7
18.466,38.004,1.665,0,11
18.467,38.002,0.030,0,9
18.466,37.995,-0.856,0,8
17.651,34.814,15.462,0,24
17.651,34.812,14.560,0,23
17.652,34.812,13.620,0,22
17.654,34.818,12.685,0,22
17.655,34.818,10.849,0,20
17.656,34.818,9.915,0,19
17.714,34.841,9.097,0,18
14.325,21.989,-2.623,0,6
17.871,35.190,-2.033,0,7
14.989,24.403,-2.214,0,7
16.953,31.668,-2.202,0,7
17.982,35.422,2.949,0,12
17.845,34.849,17.231,0,26
16.665,30.445,-2.206,0,7
16.420,29.541,-2.201,0,7
15.826,27.289,-2.200,0,7
18.849,38.170,4.558,0,13
17.973,34.519,7.336,0,16
17.644,33.078,5.917,0,15
15.670,26.043,-2.200,0,7
17.353,31.502,4.345,0,13
17.784,32.941,-2.198,0,7
18.071,33.740,-2.197,0,7
15.025,23.521,-2.352,0,6
17.709,32.130,-2.199,0,7
18.311,33.936,-1.002,0,8
16.479,27.976,-2.201,0,7
17.514,31.051,-2.199,0,7
16.820,28.836,-2.200,0,7
18.264,33.246,16.491,0,25
18.269,33.252,8.929,0,18
18.270,33.253,8.067,0,17
18.671,34.239,-1.654,0,7
18.040,32.225,7.378,0,16
17.283,29.853,-2.202,0,7
18.436,33.359,2.520,0,11
17.176,29.409,4.270,0,13
18.432,33.265,1.594,0,10
18.460,33.293,12.814,0,22
18.427,33.004,-1.717,0,7
16.311,26.533,-2.200,0,7
15.861,25.171,-2.199,0,7
18.581,33.020,3.284,0,12
18.595,33.056,0.826,0,10
18.791,33.194,12.004,0,21
18.226,31.467,-2.195,0,7
18.591,32.475,16.823,0,26
18.536,32.216,-2.198,0,7
19.120,33.503,-1.226,0,8
19.391,34.102,-1.987,0,7
18.797,32.207,18.101,0,27
17.962,29.737,4.313,0,13
21.290,38.612,0.030,0,9
19.853,34.669,-1.494,0,7
18.915,31.903,1.596,0,10
18.932,31.874,-1.399,0,7
18.975,31.930,3.293,0,12
19.012,31.894,0.797,0,10
-22.285,16.652,12.054,0,21
-23.038,16.374,12.055,0,21
-22.895,16.418,4.910,0,14
-23.677,16.129,4.909,0,14
-45.732,7.974,10.028,0,19
-43.738,8.709,8.724,0,18
-50.043,6.363,0.873,0,10
-45.687,7.970,-2.299,0,7
-44.873,8.270,-2.462,0,6
-44.045,8.577,-2.576,0,6
-38.961,10.459,-2.657,0,6
-38.049,10.796,-2.657,0,6
-36.880,11.229,-2.663,0,6
-35.792,11.632,-2.665,0,6
-34.702,12.036,-2.659,0,6
-33.753,12.387,-2.657,0,6
-32.897,12.703,-2.655,0,6
-32.050,13.017,-2.647,0,6
-31.095,13.371,-2.643,0,6
-29.036,14.133,-2.645,0,6
-28.253,14.423,-2.644,0,6
-27.438,14.724,-2.646,0,6
-26.544,15.056,-2.639,0,6
-25.743,15.352,-2.644,0,6
-24.952,15.645,-2.647,0,6
-24.137,15.947,-2.639,0,6
-23.342,16.241,-2.636,0,6
-22.539,16.538,-2.637,0,6
-21.773,16.822,-2.633,0,6
-20.990,17.112,-2.631,0,6
-20.210,17.400,-2.629,0,6
-19.448,17.682,-2.633,0,6
-18.669,17.971,-2.631,0,6
-17.881,18.262,-2.634,0,6
-17.125,18.542,-2.635,0,6
-16.330,18.836,-2.634,0,6
-30.247,13.746,-2.638,0,6
-41.703,9.717,8.970,0,18
-43.396,9.161,-2.647,0,6
-46.266,8.268,0.451,0,9
-39.739,10.672,-2.665,0,6
-45.490,8.827,-2.280,0,7
-44.676,9.108,-2.402,0,6
-40.864,10.525,-2.666,0,6
-45.852,8.894,11.639,0,20
-42.884,9.876,-2.645,0,6
-37.531,11.722,-2.663,0,6
-35.517,12.402,-2.654,0,6
-38.818,11.321,-2.661,0,6
-43.323,9.862,6.926,0,16
-36.791,12.032,-2.666,0,6
-43.952,9.753,-2.476,0,6
-33.544,13.194,-2.643,0,6
-29.837,14.440,-2.636,0,6
-34.359,12.977,-2.635,0,6
-32.751,13.505,-2.643,0,6
-31.724,13.887,-2.637,0,6
-43.246,10.227,4.578,0,13
-48.209,8.626,4.294,0,13
-22.319,17.003,19.254,0,28
-34.614,13.029,-0.807,0,8
-34.601,13.032,-1.640,0,7
-34.597,13.115,0.125,0,9
-30.914,14.278,-2.640,0,6
-44.566,10.046,7.802,0,17
-42.550,10.662,-2.614,0,6
-28.845,14.972,-2.632,0,6
-28.076,15.249,-2.645,0,6
-27.263,15.519,-2.642,0,6
-43.529,10.509,-2.482,0,6
-45.571,9.944,12.047,0,21
-35.910,12.951,-0.764,0,8
-25.593,16.153,-2.643,0,6
-26.464,15.908,-2.638,0,6
-45.456,10.295,0.936,0,10
-45.456,10.293,0.077,0,9
-45.499,10.325,1.762,0,11
-42.027,11.379,-2.610,0,6
-24.792,16.473,-2.648,0,6
-23.972,16.736,-2.643,0,6
-52.626,8.525,0.682,0,10
-39.448,12.338,-2.334,0,7
-33.935,13.913,-2.630,0,6
-32.370,14.360,-2.635,0,6
-24.291,16.694,4.911,0,14
-46.177,10.473,7.868,0,17
-43.902,11.204,10.773,0,20
-41.921,11.754,6.053,0,15
-53.902,8.426,2.830,0,12
-33.173,14.229,-2.635,0,6
-30.450,14.993,-2.637,0,6
-23.497,16.989,4.908,0,14
-22.909,17.171,12.053,0,21
-23.185,17.074,-2.638,0,6
-36.124,13.544,-2.347,0,6
-29.568,15.338,-2.639,0,6
-48.208,10.296,5.746,0,15
-31.533,14.822,-2.638,0,6
-53.746,9.089,0.774,0,10
-22.386,17.382,-2.644,0,6
-53.929,9.149,2.467,0,11
-59.450,7.975,18.889,0,28
-59.450,7.973,18.024,0,27
-59.463,7.961,12.263,0,21
-59.466,7.958,11.413,0,20
-59.462,7.957,9.972,0,19
-59.460,7.956,9.141,0,18
-59.462,7.954,8.318,0,17
-28.661,15.824,-2.639,0,6
-58.773,8.205,18.512,0,27
-58.765,8.205,17.270,0,26
-58.529,8.312,9.617,0,18
-58.702,8.264,7.749,0,17
-57.274,8.702,18.084,0,27
-57.286,8.698,17.265,0,26
-57.078,8.810,19.273,0,28
-57.268,8.747,9.583,0,18
-57.266,8.746,8.737,0,18
-57.266,8.744,7.898,0,17
-57.265,8.743,7.065,0,16
-27.845,16.102,-2.641,0,6
-57.337,8.777,4.934,0,14
-34.647,14.423,-2.524,0,6
-21.634,17.668,-2.644,0,6
-55.772,9.246,19.261,0,28
-58.448,8.571,11.755,0,21
-58.479,8.620,10.638,0,19
-54.679,9.625,19.263,0,28
-33.882,14.741,-2.560,0,6
-58.428,8.881,18.821,0,28
-56.919,9.240,15.707,0,25
-35.539,14.368,-2.171,0,7
-55.421,9.708,15.687,0,25
-57.451,9.217,12.074,0,21
-57.581,9.175,5.612,0,14
-58.599,8.930,4.261,0,13
-20.835,17.930,-2.644,0,6
-56.550,9.500,19.277,0,28
-51.329,10.836,17.499,0,26
-51.326,10.833,15.212,0,24
-51.364,10.813,8.303,0,17
-51.351,10.814,7.428,0,16
-31.081,15.550,-2.642,0,6
-27.120,16.479,-2.639,0,6
-26.257,16.682,-2.642,0,6
-51.003,10.956,16.709,0,26
-51.301,10.882,13.959,0,23
-51.338,10.860,5.849,0,15
-51.354,10.854,4.207,0,13
-51.352,10.851,2.489,0,11
-22.989,17.510,19.252,0,28
-50.144,11.252,16.767,0,26
-50.424,11.182,13.535,0,22
-50.585,11.131,5.655,0,14
-50.595,11.126,4.093,0,13
-49.722,11.396,16.007,0,25
-58.500,9.415,1.095,0,10
-49.143,11.615,14.875,0,24
-49.144,11.613,14.053,0,23
-49.147,11.609,11.764,0,21
-49.145,11.606,9.706,0,19
-49.141,11.605,8.818,0,18
-49.149,11.641,4.053,0,13
-57.099,9.902,1.076,0,10
-25.445,16.983,-2.645,0,6
-54.510,10.535,1.292,0,10
-56.243,10.203,1.188,0,10
-29.417,16.132,-2.639,0,6
-49.135,11.891,15.680,0,25
-55.397,10.497,1.191,0,10
-49.436,11.893,2.507,0,11
-49.442,11.958,13.384,0,22
-49.380,11.950,1.675,0,11
-48.037,12.307,15.688,0,25
-53.895,11.032,1.056,0,10
-56.138,10.552,0.248,0,9
-48.454,12.256,12.087,0,21
-48.624,12.214,8.503,0,17
-49.217,12.082,4.885,0,14
-24.590,17.288,-2.647,0,6
-20.072,18.246,-2.640,0,6
-55.392,10.815,0.123,0,9
-47.530,12.536,12.093,0,21
-52.870,11.398,1.093,0,10
-47.081,12.666,8.491,0,17
-47.548,12.562,4.884,0,14
-54.606,11.085,0.198,0,9
-46.633,12.806,12.091,0,21
-51.876,11.750,1.035,0,10
-49.250,12.355,12.086,0,21
-49.507,12.296,8.461,0,17
-53.616,11.442,0.069,0,9
-45.779,13.104,12.086,0,21
-48.549,12.530,4.888,0,14
-49.268,12.372,-1.904,0,7
-50.582,12.157,0.870,0,10
-50.580,12.156,0.068,0,9
-50.663,12.183,-0.777,0,8
-21.935,17.956,6.020,0,15
-43.149,13.739,7.417,0,16
-43.119,13.790,11.644,0,20
-43.137,13.784,10.328,0,19
-43.124,13.786,9.476,0,18
-49.692,12.519,1.124,0,10
-28.634,16.644,-2.649,0,6
-21.950,17.989,13.171,0,22
-23.834,17.598,-2.641,0,6
-42.384,14.038,8.765,0,18
-42.374,14.029,3.080,0,12
-24.052,17.592,4.908,0,14
-48.841,12.817,1.196,0,10
-41.613,14.298,12.282,0,21
-41.656,14.288,11.445,0,20
-41.647,14.282,6.950,0,16
-41.657,14.279,6.127,0,15
-41.671,14.272,3.688,0,13
-45.770,13.530,1.259,0,10
-48.011,13.108,1.181,0,10
-49.853,12.759,0.086,0,9
-41.971,14.282,1.241,0,10
-42.927,14.103,1.253,0,10
-44.311,13.844,1.258,0,10
-40.939,14.527,11.733,0,21
-40.902,14.516,1.344,0,10
-19.272,18.526,-2.636,0,6
-41.001,14.537,4.913,0,14
-47.216,13.384,1.206,0,10
-49.010,13.051,0.397,0,9
-49.060,13.041,-0.409,0,8
-49.244,13.005,-1.344,0,7
-27.787,16.961,-2.660,0,6
-46.516,13.637,0.839,0,10
-48.270,13.319,0.198,0,9
-48.401,13.292,-1.296,0,8
-32.409,16.177,-2.600,0,6
-23.018,17.893,-2.645,0,6
-47.593,13.565,-0.153,0,9
-47.642,13.555,-1.209,0,8
-22.794,17.976,12.057,0,21
-45.391,14.037,0.731,0,10
-26.992,17.233,-2.332,0,7
-40.883,14.869,8.482,0,17
-46.816,13.829,0.062,0,9
-46.864,13.819,-0.809,0,8
-46.694,13.888,-1.638,0,7
-46.184,14.057,-0.427,0,8
-40.028,15.144,8.477,0,17
-41.731,14.840,-1.449,0,7
-40.183,15.145,4.904,0,14
-43.877,14.523,1.180,0,10
-40.034,15.195,1.255,0,10
-45.362,14.352,-0.067,0,9
-39.248,15.429,8.481,0,17
-42.633,14.870,1.254,0,10
-39.418,15.426,4.909,0,14
-44.208,14.651,0.294,0,9
-44.205,14.686,-0.541,0,8
-41.441,15.163,1.252,0,10
-41.062,15.216,-1.730,0,7
-36.844,15.944,19.271,0,28
-42.383,15.046,-0.438,0,8
-38.436,15.708,8.488,0,17
-42.458,15.071,0.450,0,9
-23.452,18.033,4.609,0,13
-38.549,15.714,4.907,0,14
-40.956,15.377,4.906,0,14
-22.269,18.228,-2.649,0,6
-37.679,15.961,4.891,0,14
-35.985,16.263,19.279,0,28
-37.654,16.000,8.486,0,17
-41.394,15.440,3.675,0,13
-41.277,15.506,11.860,0,21
-41.282,15.503,10.987,0,20
-41.281,15.499,8.187,0,17
-41.275,15.497,7.032,0,16
-41.229,15.529,2.843,0,12
-41.236,15.527,1.985,0,11
-38.920,15.920,1.264,0,10
-40.783,15.655,1.189,0,10
-40.774,15.697,6.386,0,15
-18.462,18.829,-2.643,0,6
-40.600,15.762,11.476,0,20
-40.611,15.759,10.630,0,19
-40.621,15.752,7.805,0,17
-40.639,15.743,4.225,0,13
-40.616,15.745,3.366,0,12
-41.954,15.551,0.052,0,9
-41.995,15.543,-0.949,0,8
-36.772,16.320,8.484,0,17
-40.530,15.788,2.510,0,11
-34.917,16.646,19.083,0,28
-34.940,16.641,18.281,0,27
-40.072,15.914,0.844,0,10
-22.753,18.305,19.266,0,28
-34.945,16.650,8.240,0,17
-34.947,16.646,6.080,0,15
-38.119,16.209,1.270,0,10
-41.292,15.780,0.578,0,9
-41.314,15.775,-0.399,0,8
-36.766,16.419,1.269,0,10
-41.093,15.836,-1.211,0,8
-34.615,16.759,17.539,0,26
-21.437,18.466,-2.656,0,6
-40.689,15.992,0.062,0,9
-40.785,15.975,-1.974,0,7
-24.546,18.092,-2.653,0,6
-34.145,16.920,18.326,0,27
-34.181,16.917,4.515,0,13
-40.255,16.172,-1.300,0,8
-39.896,16.283,-0.036,0,9
-39.797,16.324,-1.939,0,7
-27.544,17.802,-2.582,0,6
-25.660,18.056,-2.661,0,6
-33.410,17.196,16.106,0,25
-39.101,16.565,0.169,0,9
-39.117,16.561,-0.962,0,8
-39.015,16.601,-1.762,0,7
-32.749,17.407,15.231,0,24
-24.409,18.314,4.907,0,14
-38.457,16.787,0.628,0,9
-38.476,16.783,-0.299,0,9
-38.368,16.823,-1.109,0,8
-23.654,18.392,-2.643,0,6
-38.277,16.861,-1.941,0,7
-33.546,17.460,1.262,0,10
-23.451,18.512,12.059,0,21
-37.792,17.086,-0.603,0,8
-20.666,18.789,-2.651,0,6
-33.632,17.701,-1.628,0,7
-32.143,17.904,15.675,0,25
-32.085,17.912,4.901,0,14
-22.903,18.718,-2.652,0,6
-33.152,18.001,15.675,0,25
-31.852,18.114,1.254,0,10
-31.265,18.204,4.901,0,14
-24.270,18.721,12.064,0,21
-31.175,18.268,15.665,0,25
-23.729,18.746,4.899,0,14
-17.719,19.136,-2.647,0,6
-22.267,18.909,6.254,0,15
-30.591,18.456,1.312,0,10
-30.455,18.490,4.900,0,14
-33.079,18.397,7.090,0,16
-33.083,18.417,6.277,0,15
-19.867,19.080,-2.648,0,6
-32.785,18.515,15.149,0,24
-24.417,18.908,-2.655,0,6
-31.898,18.684,15.678,0,25
-32.421,18.649,6.711,0,16
-29.788,18.741,1.280,0,10
-29.661,18.772,4.901,0,14
-30.544,18.836,15.672,0,25
-22.031,19.090,-2.697,0,6
-24.607,19.108,4.903,0,14
-31.430,18.992,15.085,0,24
-29.011,19.019,1.261,0,10
-28.890,19.046,4.903,0,14
-31.553,19.078,6.440,0,15
-23.563,19.192,-2.649,0,6
-23.694,19.303,12.059,0,21
-30.628,19.282,14.987,0,24
-28.253,19.283,1.335,0,10
-30.564,19.307,6.314,0,15
-28.102,19.324,4.908,0,14
-28.012,19.352,12.095,0,21
-19.102,19.315,-2.654,0,6
-26.873,19.500,12.482,0,21
-24.505,19.527,12.066,0,21
-21.277,19.434,-2.691,0,6
-16.954,19.373,-2.650,0,6
-23.269,19.628,19.264,0,28
-25.355,19.755,4.910,0,14
-24.120,19.750,4.904,0,14
-28.795,20.208,-2.568,0,6
-20.447,19.663,-2.685,0,6
-22.601,19.850,6.251,0,15
-30.376,20.578,-1.320,0,8
-23.871,20.090,12.065,0,21
-23.850,20.188,19.270,0,28
-24.749,20.286,4.907,0,14
-27.604,20.630,-2.568,0,6
-18.345,19.678,-2.657,0,6
-24.639,20.422,12.066,0,21
-19.674,19.878,-2.695,0,6
-23.981,20.895,12.069,0,21
-24.536,21.064,4.911,0,14
-22.927,20.791,5.714,0,15
-23.854,21.001,19.276,0,28
-20.410,20.495,-2.657,0,6
-24.301,21.519,4.275,0,13
-25.270,21.794,19.308,0,28
-18.938,20.263,-2.691,0,6
-25.245,22.041,3.642,0,12
-25.009,22.009,11.118,0,20
-26.352,22.380,-2.473,0,6
-16.016,19.586,-2.652,0,6
-23.563,21.772,-2.022,0,7
-19.592,20.746,-2.665,0,6
-20.745,21.276,-2.644,0,6
-18.111,20.453,-2.692,0,6
-22.019,22.319,-2.331,0,7
-17.657,20.447,-0.388,0,8
-22.301,22.540,18.152,0,27
-23.786,23.168,4.916,0,14
-25.636,23.980,4.919,0,14
-26.372,24.304,4.917,0,14
-23.764,23.168,-0.474,0,8
-21.917,22.393,-0.599,0,8
-19.214,21.203,-2.052,0,7
-23.902,23.415,18.483,0,27
-21.791,22.552,17.496,0,26
-21.646,22.451,-1.574,0,7
-16.696,20.142,-2.655,0,6
-25.745,24.855,4.813,0,14
-21.057,22.660,-2.195,0,7
-19.817,21.985,-2.069,0,7
-20.277,22.934,-1.935,0,7
-18.499,21.721,-2.065,0,7
-20.907,23.544,15.666,0,25
-18.622,21.880,-0.752,0,8
-20.432,23.200,-0.301,0,9
-21.097,23.711,4.905,0,14
-21.763,24.192,4.857,0,14
-22.428,24.673,4.916,0,14
-23.170,25.210,4.916,0,14
-16.860,20.656,-0.396,0,8
-20.155,23.341,-1.239,0,8
-18.696,22.274,-2.656,0,6
-19.639,23.156,-2.370,0,6
-22.335,25.476,4.912,0,14
-21.671,24.988,4.918,0,14
-18.717,22.449,-1.553,0,7
-17.914,21.775,-1.387,0,7
-18.890,22.643,-0.488,0,8
-17.769,21.728,-2.409,0,6
-17.000,21.440,-2.398,0,6
-17.000,21.468,-0.377,0,8
-17.711,22.557,-1.397,0,7
-15.934,20.416,-2.655,0,6
-18.763,24.335,15.656,0,24
-18.831,24.485,4.915,0,14
-19.305,25.190,4.918,0,14
-19.778,25.873,4.915,0,14
-20.274,26.575,4.910,0,14
-17.990,23.746,20.834,0,30
-16.220,21.143,-0.415,0,8
-17.224,22.943,-2.260,0,7
-18.955,25.929,4.912,0,14
-19.366,26.639,4.904,0,14
-16.771,22.227,-2.312,0,7
-16.739,22.230,-0.375,0,8
-18.343,25.128,4.914,0,14
-17.544,23.855,-2.466,0,6
-17.761,24.696,15.686,0,25
-17.201,24.028,20.718,0,30
-16.063,21.818,-2.408,0,6
-16.519,23.013,-0.422,0,8
-16.453,22.984,-2.037,0,7
-15.401,20.338,-1.020,0,8
-16.651,24.219,20.145,0,29
-15.941,21.927,-0.373,0,8
-16.225,24.374,19.400,0,28
-16.177,24.391,20.768,0,30
-15.467,23.079,-1.785,0,7
-15.376,22.247,-1.938,0,7
-15.134,20.237,-2.646,0,6
-15.389,25.294,0.943,0,10
-15.426,26.025,0.519,0,9
-15.350,26.140,1.685,0,11
-15.426,28.068,-2.062,0,7
-15.458,34.573,6.136,0,15
-15.862,48.184,-2.482,0,6
-15.188,26.274,2.866,0,12
-15.481,38.772,1.750,0,11
-15.103,25.141,0.120,0,9
-15.021,27.209,-2.610,0,6
-14.900,25.441,1.711,0,11
-14.820,25.226,2.528,0,11
-14.842,24.663,0.780,0,10
-14.747,26.855,-0.054,0,9
-14.744,26.428,2.183,0,11
-14.633,25.726,-2.088,0,7
-11.464,68.679,-2.645,0,6
-14.652,24.463,1.626,0,10
-14.560,25.436,0.968,0,10
-14.078,31.536,-0.693,0,8
-11.078,68.040,-2.266,0,7
-14.457,25.872,3.216,0,12
-13.509,35.268,-2.272,0,7
-12.650,43.816,-1.916,0,7
-14.713,22.765,-1.926,0,7
-14.468,24.713,-0.704,0,8
-14.318,25.038,-2.532,0,6
-14.357,24.569,0.147,0,9
-12.996,32.858,-1.998,0,7
-13.949,26.310,4.321,0,13
-14.070,24.780,2.286,0,11
-11.367,40.259,-0.942,0,8
-13.967,25.264,-0.212,0,9
-8.347,54.202,-2.602,0,6
-13.471,27.273,-0.182,0,9
-13.929,24.714,0.849,0,10
-13.604,25.960,0.892,0,10
-4.266,66.502,-1.495,0,7
-7.847,50.155,-2.594,0,6
-7.826,50.045,-1.425,0,7
-13.213,26.771,1.330,0,10
-6.989,52.169,-2.615,0,6
-13.834,24.181,-2.621,0,6
-14.652,20.905,-2.647,0,6
-7.463,49.100,-1.455,0,7
-7.317,49.078,-2.286,0,7
-8.915,42.236,-2.740,0,6
-13.533,24.982,-1.987,0,7
-6.765,49.658,-2.354,0,6
-13.692,24.029,1.935,0,11
-8.781,41.306,-2.736,0,6
-6.119,50.037,-2.062,0,7
-11.377,31.472,-0.841,0,8
-8.638,40.488,-2.737,0,6
-11.271,31.797,-2.522,0,6
-10.969,32.671,-2.486,0,6
-12.640,27.100,-0.523,0,8
-13.678,23.668,-2.022,0,7
-11.364,30.909,-2.531,0,6
-11.740,29.598,-2.529,0,6
-10.925,31.897,-1.661,0,7
-13.199,24.876,0.457,0,9
-10.048,34.395,-2.544,0,6
-7.650,41.437,-2.743,0,6
-9.527,35.627,-2.561,0,6
-7.801,40.632,-2.741,0,6
-7.175,42.277,-2.752,0,6
-6.318,43.187,-2.769,0,6
-7.897,38.796,-2.739,0,6
-6.833,41.266,-2.753,0,6
-10.585,31.246,-2.521,0,6
-9.299,34.386,-2.129,0,7
-9.566,33.693,-2.556,0,6
-9.851,32.897,-2.528,0,6
-10.952,29.905,-2.477,0,6
-6.116,42.060,-2.765,0,6
-6.798,40.323,-2.747,0,6
-13.547,23.113,-2.632,0,6
-7.600,38.019,-2.740,0,6
-8.613,35.161,-0.071,0,9
-3.941,46.429,-2.670,0,6
-11.087,28.994,-2.523,0,6
-12.766,24.814,2.319,0,11
4.052,65.394,0.865,0,10
4.053,65.410,0.007,0,9
4.054,65.424,-0.851,0,8
-6.011,41.078,-2.764,0,6
-13.802,22.331,-2.646,0,6
4.116,65.264,-1.646,0,7
-5.374,42.446,-2.779,0,6
-12.394,25.575,3.002,0,12
-14.125,21.530,-2.651,0,6
-12.887,24.416,-2.008,0,7
4.297,64.716,0.479,0,9
4.300,64.733,-0.369,0,8
4.360,64.578,-1.157,0,8
-7.454,37.046,-2.743,0,6
-6.822,38.389,-2.743,0,6
-3.170,46.742,-1.968,0,7
-6.197,39.766,-2.755,0,6
-4.620,42.840,-2.794,0,6
-5.186,41.344,-2.776,0,6
-9.957,30.654,-2.519,0,6
5.528,64.778,-1.405,0,7
-5.465,40.438,-2.767,0,6
-1.699,48.343,-2.345,0,6
2.387,56.950,-0.179,0,9
-5.891,38.851,-2.756,0,6
-2.630,45.711,-2.163,0,7
-7.059,36.254,-2.742,0,6
2.588,56.526,0.725,0,10
5.233,62.140,-1.565,0,7
-4.440,41.659,-2.789,0,6
-5.417,39.538,-2.765,0,6
-8.791,32.458,-2.568,0,6
-10.038,29.808,-2.498,0,6
-3.830,42.505,-2.797,0,6
-1.433,47.267,-2.121,0,7
-4.651,40.670,-2.780,0,6
-5.930,38.045,-2.750,0,6
-2.949,43.939,-2.808,0,6
5.905,61.790,-1.217,0,8
6.248,61.917,1.767,0,11
6.558,62.033,-0.750,0,8
6.551,62.031,-1.631,0,7
1.751,51.437,-1.674,0,7
-3.565,41.286,-2.795,0,6
-4.439,39.615,-2.777,0,6
-4.830,38.866,-2.768,0,6
-8.603,31.575,-2.566,0,6
-3.066,42.030,-2.794,0,6
-3.869,40.445,-2.793,0,6
-12.862,23.439,-1.956,0,7
-8.914,30.670,-2.528,0,6
-2.480,41.989,0.375,0,9
7.379,59.365,17.388,0,26
7.567,59.467,16.611,0,25
1.994,49.632,-1.695,0,7
-9.165,29.792,-2.548,0,6
-2.732,41.175,-2.786,0,6
-3.953,38.951,-2.780,0,6
7.901,59.518,11.831,0,21
-3.447,39.724,-2.792,0,6
-4.309,38.209,-2.772,0,6
-7.572,32.433,-2.589,0,6
7.569,58.540,17.395,0,26
-2.943,40.370,-2.792,0,6
7.042,56.981,15.990,0,25
7.064,56.944,12.962,0,22
7.062,56.951,12.140,0,21
7.062,56.957,11.326,0,20
-1.764,41.485,-0.425,0,8
-8.138,30.865,-2.558,0,6
-1.743,41.295,-2.766,0,6
-2.160,40.546,-2.771,0,6
-3.048,39.028,-2.793,0,6
-3.499,38.288,-2.783,0,6
-1.200,41.995,-2.660,0,6
-10.918,26.064,-2.084,0,7
7.920,56.445,14.157,0,23
8.024,56.480,16.954,0,26
8.021,56.485,15.957,0,25
8.013,56.481,15.094,0,24
8.003,56.486,12.930,0,22
8.083,56.519,12.126,0,21
8.094,56.518,3.481,0,12
8.046,56.490,-1.430,0,7
-2.290,39.753,-2.780,0,6
-3.695,37.453,-2.774,0,6
8.559,56.641,13.485,0,22
8.618,56.522,14.551,0,23
8.685,56.509,16.477,0,25
8.765,56.539,15.630,0,24
-8.359,29.830,-2.542,0,6
8.480,55.972,17.378,0,26
-7.305,31.450,-2.591,0,6
9.026,56.664,12.791,0,22
8.684,55.826,13.518,0,22
9.030,56.375,12.005,0,21
8.852,56.228,-1.379,0,7
9.127,56.089,15.068,0,24
-2.643,38.279,-2.791,0,6
-1.503,39.963,-2.763,0,6
8.059,54.163,16.155,0,25
8.058,54.170,15.263,0,24
8.058,54.178,14.384,0,23
-1.968,38.990,-2.777,0,6
-2.884,37.516,-2.787,0,6
-8.301,29.097,0.310,0,9
8.938,53.617,17.141,0,26
9.037,53.685,15.319,0,24
9.029,53.680,14.431,0,23
9.059,53.688,-1.368,0,7
9.389,53.816,16.223,0,25
-10.865,25.255,-2.102,0,7
-1.851,37.996,-2.781,0,6
2.171,43.617,-2.124,0,7
-1.043,39.037,-2.760,0,6
9.718,53.748,14.894,0,24
9.940,53.862,16.859,0,26
-2.463,36.809,-2.789,0,6
-7.435,29.901,-2.595,0,6
-8.585,28.263,-0.770,0,8
6.574,49.278,-2.332,0,7
9.582,53.182,17.392,0,26
-6.105,31.676,-1.873,0,7
10.039,53.738,15.743,0,25
9.441,52.753,14.413,0,23
9.787,53.235,13.411,0,22
10.676,54.242,16.919,0,26
11.008,54.425,16.187,0,25
-6.227,31.263,-2.549,0,6
-7.843,29.053,-2.593,0,6
-13.267,21.732,-2.651,0,6
10.017,52.918,15.476,0,24
9.567,52.372,-1.618,0,7
-6.644,30.497,-2.637,0,6
9.921,50.803,12.935,0,22
10.037,50.845,15.752,0,25
10.029,50.842,14.884,0,24
10.002,50.832,12.079,0,21
10.081,50.857,11.230,0,20
10.056,50.844,-0.520,0,8
10.242,50.927,8.292,0,17
10.394,50.964,17.367,0,26
10.498,51.016,16.399,0,25
10.464,50.997,13.498,0,22
10.584,51.011,10.600,0,19
10.683,50.877,12.673,0,22
10.750,50.866,14.493,0,23
10.789,50.828,15.474,0,24
10.805,50.876,11.866,0,21
-6.700,29.552,-2.600,0,6
-8.811,26.966,-2.609,0,6
14.900,55.692,13.426,0,22
-6.206,30.098,-2.081,0,7
10.606,50.190,17.392,0,26
11.721,51.456,17.120,0,26
13.876,53.965,17.382,0,26
14.546,54.683,17.388,0,26
10.709,50.109,13.529,0,22
11.024,50.427,10.927,0,20
-13.863,20.745,-2.648,0,6
10.957,50.073,5.670,0,15
11.057,50.034,15.526,0,24
11.058,50.041,14.723,0,24
11.073,50.181,-0.521,0,8
-7.028,28.804,-2.649,0,6
15.294,54.965,13.330,0,22
12.674,51.794,13.573,0,22
14.294,53.699,13.567,0,22
15.337,54.868,9.380,0,18
-6.200,29.259,-1.938,0,7
11.046,48.046,16.661,0,26
11.032,48.037,15.797,0,25
11.033,48.025,8.095,0,17
11.024,48.023,7.143,0,16
10.994,48.006,4.972,0,14
11.079,48.034,4.157,0,13
11.064,48.025,3.235,0,12
11.058,48.034,1.220,0,10
11.045,48.026,0.359,0,9
11.032,48.019,-0.499,0,8
11.424,48.185,15.107,0,24
11.341,48.105,13.509,0,22
11.307,48.122,6.401,0,15
11.438,48.110,17.387,0,26
11.473,48.200,10.412,0,19
11.588,48.236,12.355,0,21
11.496,48.156,9.575,0,18
11.551,48.223,8.723,0,18
11.453,48.163,2.546,0,11
11.587,48.210,5.652,0,14
11.640,48.151,11.436,0,20
11.656,48.191,-0.974,0,8
11.769,48.113,16.267,0,25
11.754,48.089,7.713,0,17
11.760,48.118,4.719,0,14
11.782,48.166,1.545,0,10
11.833,48.232,0.141,0,9
11.794,48.087,3.735,0,13
11.978,48.185,6.950,0,16
12.070,48.022,13.066,0,22
12.043,47.904,15.536,0,24
11.618,47.297,17.396,0,26
12.181,47.952,9.193,0,18
13.050,48.731,17.271,0,26
13.116,48.809,16.183,0,25
11.769,47.411,13.536,0,22
12.033,47.767,2.993,0,12
12.122,47.878,0.865,0,10
12.197,47.802,12.064,0,21
11.453,47.032,10.618,0,19
12.095,47.722,8.365,0,17
11.523,47.065,6.770,0,16
11.919,47.488,5.747,0,15
-5.776,29.020,-1.302,0,8
11.564,46.983,14.343,0,23
12.095,47.561,11.133,0,20
11.922,47.391,9.707,0,19
11.567,46.999,3.045,0,12
11.935,47.390,1.849,0,11
13.401,48.919,1.603,0,10
12.663,48.161,0.303,0,9
-6.203,28.534,-2.283,0,7
13.492,48.948,0.241,0,9
12.043,47.280,12.758,0,22
11.975,47.311,-0.929,0,8
13.816,48.937,17.393,0,26
13.071,48.181,15.687,0,25
13.917,49.022,9.759,0,19
13.247,48.376,3.982,0,13
13.925,49.095,1.020,0,10
14.116,49.160,8.679,0,18
14.004,49.067,5.673,0,15
12.058,47.109,0.596,0,9
12.176,47.053,15.203,0,24
-14.340,20.050,-2.642,0,6
12.104,46.899,16.896,0,26
14.298,49.225,4.830,0,14
14.260,49.221,0.264,0,9
-8.111,26.407,-2.606,0,6
14.495,49.303,1.617,0,10
-6.101,27.950,-1.729,0,7
12.126,45.216,16.018,0,25
12.091,45.203,13.083,0,22
12.196,45.242,12.284,0,21
12.188,45.241,11.455,0,20
12.157,45.224,9.525,0,18
12.145,45.219,8.630,0,17
12.127,45.208,7.745,0,17
12.278,45.268,10.362,0,19
12.194,45.230,4.504,0,13
12.184,45.239,1.792,0,11
12.181,45.243,0.957,0,10
12.165,45.235,-0.060,0,9
12.157,45.233,-0.891,0,8
12.443,45.329,15.267,0,24
12.433,45.326,14.335,0,23
12.591,45.391,17.366,0,26
12.403,45.307,3.730,0,13
12.392,45.305,2.601,0,11
12.643,45.379,7.124,0,16
12.658,45.387,-1.543,0,7
12.787,45.253,16.587,0,25
12.848,45.305,8.180,0,17
-13.436,20.823,-1.542,0,7
13.062,45.414,12.073,0,21
13.008,45.369,11.266,0,20
12.733,45.152,5.749,0,15
13.035,45.343,9.120,0,18
13.081,45.415,5.052,0,14
13.061,45.402,4.182,0,13
12.816,45.201,0.418,0,9
13.027,45.223,15.810,0,25
12.756,44.988,13.529,0,22
12.935,45.250,-0.374,0,8
13.153,45.231,12.847,0,22
13.000,45.156,3.201,0,12
13.071,45.234,1.509,0,10
12.623,44.586,17.395,0,26
14.009,45.911,9.465,0,18
14.004,45.913,8.537,0,17
12.950,44.840,14.788,0,24
12.995,44.909,10.598,0,19
12.860,44.792,9.685,0,19
14.109,45.949,7.743,0,17
13.148,45.013,6.612,0,15
17.528,48.824,1.840,0,11
17.600,48.895,1.032,0,10
14.751,46.185,9.766,0,19
14.724,46.171,8.292,0,17
17.640,48.789,0.219,0,9
-13.178,21.009,-2.291,0,7
13.104,44.617,2.605,0,11
13.084,44.441,16.715,0,26
13.075,44.439,15.647,0,24
13.068,44.453,12.633,0,21
13.016,44.455,5.462,0,14
13.251,44.673,4.465,0,13
12.990,44.457,1.748,0,11
13.122,44.445,11.811,0,21
13.097,44.414,3.669,0,13
13.104,44.440,0.869,0,10
12.865,44.078,13.534,0,22
15.646,46.514,9.735,0,19
13.171,44.244,11.008,0,20
15.992,46.636,17.078,0,26
13.320,44.333,8.104,0,17
14.367,45.132,17.383,0,26
13.119,44.084,9.405,0,18
13.396,44.344,7.092,0,16
12.888,43.766,17.391,0,26
15.075,45.690,17.388,0,26
15.093,45.731,13.602,0,22
15.727,46.222,13.611,0,22
17.851,48.167,1.502,0,10
16.472,46.808,13.316,0,22
-12.919,21.172,-0.999,0,8
-12.181,21.766,-2.634,0,6
-12.626,21.335,-1.784,0,7
-10.834,22.824,-2.605,0,6
-11.430,22.269,-2.622,0,6
10.074,39.663,-2.152,0,7
14.946,43.083,12.670,0,22
14.965,43.103,11.836,0,21
10.271,38.951,-2.577,0,6
15.048,42.477,6.183,0,15
16.465,43.100,10.950,0,20
16.418,42.913,15.214,0,24
15.213,42.085,2.459,0,11
15.305,41.896,5.674,0,15
17.452,43.324,13.210,0,22
10.540,38.200,-2.489,0,6
19.377,44.412,3.904,0,13
19.258,44.255,4.729,0,14
19.386,43.906,12.954,0,22
15.750,41.306,2.783,0,12
16.046,41.016,8.069,0,17
-0.418,29.562,-2.794,0,6
-9.910,22.916,-2.115,0,7
15.721,40.743,5.897,0,15
16.900,41.463,13.151,0,22
10.658,37.215,-2.623,0,6
19.565,43.189,13.325,0,22
19.636,43.222,5.426,0,14
16.960,40.717,16.899,0,26
16.035,40.158,6.359,0,15
16.934,40.663,13.210,0,22
18.033,41.279,13.179,0,22
19.885,42.514,12.997,0,22
16.376,40.148,7.869,0,17
16.281,40.128,0.899,0,10
16.033,39.879,5.569,0,14
11.119,36.576,-2.395,0,6
16.445,39.777,3.218,0,12
0.275,29.132,-2.805,0,6
16.254,39.261,5.072,0,14
-12.424,20.954,-2.630,0,6
16.441,38.742,5.660,0,15
16.567,38.397,4.899,0,14
16.647,38.112,17.125,0,26
16.662,38.080,14.709,0,24
16.679,38.032,15.678,0,25
16.677,38.085,6.102,0,15
16.694,37.999,13.696,0,23
16.726,37.950,7.135,0,16
16.740,37.898,8.423,0,17
16.758,37.837,11.726,0,21
16.780,37.764,17.888,0,27
-10.718,21.835,-1.742,0,7
16.810,37.682,16.417,0,25
16.835,37.733,9.884,0,19
16.840,37.762,5.302,0,14
0.719,28.464,-2.810,0,6
16.829,37.670,10.914,0,20
16.901,37.423,15.192,0,24
16.901,37.428,14.284,0,23
16.903,37.436,13.133,0,22
16.903,37.459,9.079,0,18
16.919,37.422,7.778,0,17
16.917,37.427,6.547,0,15
16.934,37.324,17.220,0,26
17.046,37.059,10.380,0,19
17.042,37.082,5.785,0,15
17.050,37.091,4.905,0,14
17.185,36.631,17.612,0,26
-11.559,21.209,-2.628,0,6
17.672,36.838,8.740,0,18
17.291,36.398,5.439,0,14
17.683,36.459,13.110,0,22
17.239,36.155,16.851,0,26
19.172,37.114,17.386,0,26
19.948,37.519,17.389,0,26
17.661,36.357,11.043,0,20
21.582,38.445,4.259,0,13
20.776,37.896,17.393,0,26
17.786,36.261,12.335,0,21
19.756,37.295,9.799,0,19
16.832,35.754,5.631,0,14
21.517,37.885,17.086,0,26
-13.188,20.267,-2.642,0,6
17.526,35.563,13.104,0,22
17.571,35.628,5.281,0,14
20.192,36.842,13.591,0,22
21.137,37.314,13.591,0,22
21.694,37.540,12.790,0,22
17.907,35.673,9.283,0,18
21.738,37.436,4.369,0,13
18.130,35.356,12.246,0,21
18.172,35.381,11.400,0,20
17.836,34.890,6.003,0,15
17.809,34.882,5.030,0,14
17.983,34.889,0.203,0,9
18.024,34.355,8.528,0,17
18.040,34.272,16.026,0,25
18.017,34.272,14.095,0,23
18.040,34.292,12.204,0,21
18.054,34.220,17.799,0,27
18.055,34.234,15.055,0,24
18.051,34.242,13.220,0,22
18.018,34.241,10.398,0,19
18.070,34.211,11.398,0,20
18.069,34.220,9.533,0,18
18.071,34.237,6.501,0,15
18.067,34.240,5.574,0,14
18.081,34.139,16.898,0,26
18.241,33.766,7.381,0,16
26.818,37.449,5.092,0,14
26.809,37.452,3.898,0,13
18.270,33.636,15.570,0,24
18.270,33.642,14.557,0,23
18.284,33.602,13.718,0,23
18.298,33.540,17.433,0,26
18.304,33.575,10.887,0,20
18.303,33.580,9.956,0,19
18.307,33.602,6.074,0,15
18.333,33.519,5.243,0,14
27.031,36.863,4.575,0,13
27.047,36.827,1.021,0,10
27.028,36.824,0.068,0,9
27.093,36.803,-2.228,0,7
27.103,36.713,3.781,0,13
18.875,33.200,15.966,0,25
18.833,33.186,15.132,0,24
18.966,33.178,8.487,0,17
22.332,34.310,13.590,0,22
27.229,36.327,5.140,0,14
21.236,33.816,13.589,0,22
18.947,32.919,9.277,0,18
18.609,32.754,5.419,0,14
27.221,36.171,-0.494,0,8
26.893,36.045,-1.440,0,7
22.844,34.325,8.313,0,17
22.776,34.238,9.669,0,19
18.087,32.399,6.079,0,15
27.370,35.962,3.946,0,13
20.691,33.166,17.376,0,26
21.477,33.473,17.369,0,26
22.892,34.026,17.057,0,26
18.655,32.345,13.096,0,22
27.479,35.634,4.795,0,14
21.920,33.400,13.549,0,22
22.936,33.789,13.499,0,22
23.037,33.795,9.050,0,18
19.275,32.150,12.625,0,21
19.245,32.156,9.228,0,18
19.229,32.106,8.351,0,17
19.303,32.138,7.465,0,16
18.875,31.988,5.413,0,14
19.242,32.022,16.528,0,25
19.207,32.034,11.321,0,20
27.778,34.848,4.737,0,14
19.153,31.262,5.702,0,15
28.048,34.071,4.923,0,14
-11.789,20.404,-2.625,0,6
19.293,30.663,12.049,0,21
19.407,30.551,6.118,0,15
27.989,33.344,4.546,0,13
19.415,30.511,9.320,0,18
19.415,30.510,8.460,0,17
23.620,31.862,1.707,0,11
19.419,30.475,14.807,0,24
19.428,30.472,11.027,0,20
19.432,30.472,10.145,0,19
19.444,30.395,17.365,0,26
19.448,30.391,13.966,0,23
28.072,33.138,3.759,0,13
19.461,30.351,16.096,0,25
19.524,30.221,7.706,0,17
19.527,30.220,6.863,0,16
21.750,30.235,17.347,0,26
22.598,30.486,17.358,0,26
22.508,30.453,13.575,0,22
23.369,30.708,13.575,0,22
24.096,30.868,12.776,0,22
24.064,30.812,17.092,0,26
19.944,29.389,2.631,0,11
23.495,30.279,17.375,0,26
24.130,30.453,13.476,0,22
10.345,26.495,5.591,0,14
9.273,26.060,5.334,0,14
22.891,29.640,13.573,0,22
22.009,29.358,17.350,0,26
22.847,29.584,17.353,0,26
24.412,30.000,12.798,0,22
24.401,29.898,17.065,0,26
20.623,28.689,12.613,0,21
20.666,28.603,11.397,0,20
20.395,28.493,16.549,0,25
19.460,28.092,5.491,0,14
20.253,28.149,5.358,0,14
27.087,29.685,3.876,0,13
-12.463,19.902,-2.625,0,6
20.651,26.914,5.838,0,15
20.776,26.716,10.886,0,20
20.777,26.714,10.047,0,19
-13.638,19.600,-2.638,0,6
20.800,26.634,14.477,0,23
20.886,26.373,17.727,0,27
-10.152,20.230,-2.591,0,6
25.462,26.776,9.700,0,19
25.554,26.792,8.863,0,18
23.801,26.428,13.578,0,22
25.002,26.647,13.577,0,22
25.601,26.693,8.069,0,17
25.619,26.651,12.773,0,22
23.320,25.996,17.373,0,26
24.177,26.145,17.368,0,26
25.038,26.294,17.350,0,26
24.477,25.936,13.569,0,22
25.734,26.100,16.977,0,26
25.712,26.083,9.354,0,18
22.790,25.324,16.957,0,26
23.774,25.480,16.957,0,26
25.920,25.812,12.767,0,22
24.684,25.473,17.369,0,26
21.958,24.905,12.496,0,21
21.911,24.752,8.745,0,18
21.901,24.749,7.768,0,17
21.905,24.715,15.285,0,24
12.056,22.360,-1.493,0,7
22.013,23.305,5.131,0,14
10.483,21.956,-1.752,0,7
26.733,23.276,1.216,0,10
31.103,23.569,-1.618,0,7
22.231,22.680,10.049,0,19
22.272,22.586,6.731,0,16
30.259,23.269,-0.493,0,8
22.287,22.507,14.145,0,23
22.312,22.423,17.473,0,26
22.297,22.418,15.228,0,24
26.975,22.617,1.640,0,10
30.252,22.868,-1.218,0,8
30.223,22.754,-2.054,0,7
25.400,22.214,13.568,0,22
26.668,22.304,13.565,0,22
29.852,22.457,4.723,0,14
29.799,22.443,-0.114,0,9
29.690,22.388,3.864,0,13
29.740,22.385,0.822,0,10
29.750,22.325,-1.548,0,7
27.213,21.947,1.235,0,10
27.239,21.870,13.173,0,22
29.873,21.999,-0.776,0,8
26.060,21.748,13.566,0,22
25.003,21.643,17.382,0,26
25.913,21.695,17.376,0,26
27.387,21.779,17.107,0,26
27.293,21.759,9.735,0,19
27.394,21.764,8.931,0,18
31.057,21.908,4.642,0,13
29.950,21.788,3.385,0,12
26.751,21.320,13.572,0,22
23.284,21.066,16.464,0,25
23.789,21.071,7.523,0,16
23.586,20.917,8.477,0,17
-11.908,19.278,-2.620,0,6
28.578,18.436,8.179,0,17
28.537,18.332,9.748,0,19
28.672,18.159,8.932,0,18
27.940,18.135,13.559,0,22
28.631,18.060,13.081,0,22
27.285,18.055,17.406,0,26
28.565,18.015,17.394,0,26
28.825,17.725,16.687,0,26
28.844,17.660,12.383,0,21
26.718,17.424,13.554,0,22
28.290,17.352,13.569,0,22
26.830,17.373,17.402,0,26
28.888,17.276,17.351,0,26
28.953,17.208,13.075,0,22
26.014,17.309,17.407,0,26
-12.892,19.201,-2.636,0,6
29.071,16.990,16.359,0,25
29.183,16.783,0.791,0,10
29.220,16.678,4.521,0,13
29.235,16.464,5.523,0,14
29.250,16.398,1.723,0,11
27.897,16.255,13.574,0,22
27.253,16.280,3.537,0,12
28.790,16.137,13.580,0,22
26.109,16.319,7.094,0,16
27.453,16.005,5.209,0,14
24.773,15.333,12.268,0,21
24.989,15.164,14.295,0,23
24.406,15.199,2.796,0,12
25.103,15.072,1.518,0,10
24.952,14.870,16.838,0,26
24.987,14.855,11.644,0,20
25.013,14.810,15.753,0,25
24.907,14.808,9.324,0,18
25.008,14.794,8.510,0,17
25.027,14.790,7.682,0,17
25.127,14.740,13.182,0,22
24.136,14.776,0.633,0,9
-11.189,18.839,-2.596,0,6
-14.368,19.215,-0.981,0,8
26.182,12.905,17.433,0,26
27.113,12.759,17.413,0,26
27.179,12.740,13.580,0,22
28.258,12.570,12.999,0,22
24.426,13.125,15.602,0,24
27.953,12.519,17.221,0,26
27.930,12.457,12.255,0,21
12.492,14.895,-2.675,0,6
27.832,12.426,16.428,0,25
31.053,11.580,4.353,0,13
26.466,12.116,17.428,0,26
26.692,12.000,7.149,0,16
26.586,11.967,8.048,0,17
25.202,12.103,6.756,0,16
24.794,12.040,15.247,0,24
24.707,11.951,14.418,0,23
24.731,11.938,10.667,0,20
24.573,11.745,4.363,0,13
24.449,11.723,6.627,0,15
24.883,11.612,17.442,0,26
24.947,11.489,16.583,0,25
24.746,10.474,11.354,0,20
28.646,9.600,9.680,0,19
32.043,8.819,0.654,0,9
25.675,10.213,10.924,0,20
25.655,10.208,6.965,0,16
25.454,10.169,15.895,0,25
25.454,10.167,15.068,0,24
26.494,9.923,11.854,0,21
26.873,9.821,5.256,0,14
28.356,9.454,16.925,0,26
28.371,9.440,12.740,0,22
27.316,9.635,17.437,0,26
28.308,9.404,16.090,0,25
28.126,9.440,13.565,0,22
32.165,8.481,1.375,0,10
28.165,9.371,11.970,0,21
28.138,9.367,8.089,0,17
27.924,9.264,15.400,0,24
27.892,9.251,7.201,0,16
25.940,9.511,15.191,0,24
-3.583,16.511,-2.583,0,6
25.732,9.342,14.422,0,23
-11.754,18.486,-2.118,0,7
25.708,9.000,4.486,0,13
25.709,8.903,8.705,0,18
26.119,8.702,13.442,0,22
-4.426,16.562,-2.559,0,6
-5.268,16.780,-2.555,0,6
25.169,8.901,16.321,0,25
25.208,8.809,6.521,0,15
-7.243,17.238,-2.552,0,6
-10.784,18.149,-2.584,0,6
-6.188,16.863,-2.548,0,6
-12.372,18.553,-2.636,0,6
26.764,7.227,6.760,0,16
27.272,7.046,15.620,0,24
28.953,6.551,13.571,0,22
29.077,6.513,12.747,0,22
29.082,6.503,9.548,0,18
29.095,6.497,8.723,0,18
29.091,6.496,7.899,0,17
29.061,6.498,5.631,0,14
29.062,6.495,4.771,0,14
29.056,6.495,3.970,0,13
0.509,14.786,-1.705,0,7
28.946,6.461,1.637,0,10
28.940,6.459,0.284,0,9
26.872,6.990,14.627,0,23
28.710,6.382,12.043,0,21
27.068,6.751,10.805,0,20
-9.328,17.600,-2.565,0,6
26.741,6.382,6.689,0,16
-3.534,15.709,-2.557,0,6
26.765,6.225,14.852,0,24
26.748,6.221,11.342,0,20
-8.228,17.168,-2.556,0,6
26.588,6.081,4.158,0,13
27.087,5.839,15.747,0,25
26.275,6.027,10.373,0,19
-0.181,14.499,-2.010,0,7
-4.995,15.960,-2.548,0,6
-14.203,19.025,-2.628,0,6
0.325,13.997,-1.469,0,7
-5.850,16.130,-2.538,0,6
-6.897,16.458,-2.546,0,6
29.813,3.591,12.464,0,21
29.823,3.576,8.451,0,17
29.298,3.759,7.861,0,17
28.691,3.932,16.101,0,25
28.682,3.933,15.262,0,24
29.682,3.575,13.443,0,22
29.086,3.527,8.975,0,18
-4.297,15.457,-2.549,0,6
28.046,3.784,11.306,0,20
27.854,3.802,14.563,0,23
27.781,3.695,10.529,0,19
27.784,3.499,6.566,0,15
-0.197,13.819,-2.491,0,6
-7.720,16.527,-2.549,0,6
27.820,2.823,10.976,0,20
-10.248,17.439,-2.578,0,6
-3.646,14.816,-2.551,0,6
-2.671,14.414,-2.546,0,6
-8.964,16.832,-2.562,0,6
28.871,1.342,11.376,0,20
28.791,1.307,10.555,0,19
-1.320,13.663,-1.690,0,7
-5.558,15.363,-2.543,0,6
28.794,0.957,2.790,0,12
28.784,0.932,14.438,0,23
-6.558,15.703,-2.543,0,6
28.747,0.483,10.499,0,19
-4.744,14.794,-2.556,0,6
-13.491,18.625,-2.634,0,6
22.890,2.296,0.616,0,9
-3.394,14.047,-2.155,0,7
-7.364,15.757,-2.539,0,6
-4.211,14.181,-2.549,0,6
-2.847,13.497,-2.535,0,6
29.811,-2.123,1.007,0,10
-8.493,16.167,-2.553,0,6
29.712,-2.346,1.803,0,11
-9.789,16.755,-2.573,0,6
-2.182,13.040,-2.550,0,6
-3.499,13.541,-1.514,0,7
-6.256,14.888,-2.555,0,6
-5.495,14.490,-2.550,0,6
-3.808,13.431,-2.461,0,6
-7.105,14.993,-2.548,0,6
-4.905,13.747,-2.555,0,6
-10.986,17.049,-2.594,0,6
-8.109,15.437,-2.550,0,6
-9.362,16.079,-2.564,0,6
-3.401,12.618,-1.714,0,7
-3.593,12.630,-2.524,0,6
-5.215,13.522,1.039,0,10
-6.164,14.024,-2.552,0,6
-1.107,10.969,-2.208,0,7
-4.457,12.883,-2.521,0,6
-3.162,11.937,-2.119,0,7
-12.491,17.714,-2.634,0,6
-5.633,13.387,-2.539,0,6
-6.993,14.201,-2.545,0,6
-2.070,11.057,-2.129,0,7
-8.931,15.398,-2.561,0,6
-7.862,14.627,-2.548,0,6
11.398,2.040,0.366,0,9
-10.457,16.294,-2.583,0,6
-4.140,12.004,-2.542,0,6
-2.872,11.111,-2.117,0,7
-4.897,12.384,-1.387,0,7
-5.224,12.602,-2.522,0,6
-3.540,11.346,-2.570,0,6
-5.628,12.731,-0.024,0,9
-6.425,13.261,-2.553,0,6
-1.584,9.592,-1.865,0,7
-2.805,10.401,-2.580,0,6
-6.500,13.073,1.129,0,10
-2.545,10.168,-1.736,0,7
-8.683,14.629,-2.551,0,6
-4.907,11.755,-2.535,0,6
-7.708,13.826,-2.556,0,6
-6.093,12.532,-2.511,0,6
-10.111,15.572,-2.581,0,6
-2.302,9.639,-2.329,0,7
-5.699,12.108,-1.403,0,7
-4.431,11.104,-2.558,0,6
-3.736,10.543,-2.586,0,6
-7.221,13.064,-2.555,0,6
-9.476,14.795,-2.561,0,6
-3.317,9.782,-2.633,0,6
-5.820,11.777,-2.524,0,6
-2.266,8.850,-2.471,0,6
-7.272,12.800,1.051,0,10
-1.823,8.136,-2.069,0,7
-5.296,11.049,-2.551,0,6
-8.528,13.772,-2.555,0,6
-4.532,10.309,-2.587,0,6
-12.274,16.929,-2.648,0,6
-13.332,17.817,-2.640,0,6
-1.897,7.771,-2.792,0,6
-7.017,12.247,-2.336,0,7
-8.076,13.101,-2.549,0,6
-1.363,6.813,-2.208,0,7
-6.737,11.648,-1.723,0,7
-1.435,6.600,-1.321,0,8
-9.329,13.941,-2.561,0,6
-8.028,12.538,1.070,0,10
-7.854,12.332,-2.506,0,6
-6.602,10.975,-2.327,0,7
-7.282,11.512,-2.509,0,6
-6.713,10.927,-1.360,0,7
-10.909,15.158,2.290,0,11
-10.144,14.324,-2.578,0,6
-8.906,13.051,-2.558,0,6
-6.345,10.242,-1.981,0,7
-0.468,3.804,-2.533,0,6
-0.464,3.436,-3.244,0,6
-0.124,2.821,-2.461,0,6
-8.672,12.246,-2.541,0,6
-0.097,2.704,-3.296,0,6
-6.409,9.667,-2.585,0,6
0.293,2.103,-2.115,0,7
-6.968,10.244,-2.552,0,6
-8.124,11.542,-2.522,0,6
-8.801,12.269,1.166,0,10
0.155,1.995,-2.909,0,6
-9.749,13.258,-2.567,0,6
-5.988,8.911,-2.632,0,6
-7.303,10.382,-1.417,0,7
-13.089,17.048,-2.614,0,6
0.336,1.470,-3.533,0,5
-7.713,10.806,-2.524,0,6
0.395,1.315,-2.407,0,6
1.124,0.324,-2.200,0,7
-5.784,8.365,0.130,0,9
0.558,0.843,-3.059,0,6
0.725,0.353,-3.709,0,5
-8.709,11.654,0.655,0,9
0.716,0.183,-1.523,0,7
0.740,-0.002,-2.875,0,6
-12.655,16.361,-2.052,0,7
1.063,-0.649,-2.421,0,6
1.117,-0.722,-3.251,0,6
1.302,-1.217,-3.910,0,5
-6.139,8.127,-2.689,0,6
1.564,-1.583,-1.557,0,7
-6.797,8.927,-2.621,0,6
1.320,-1.386,-2.622,0,6
-11.517,14.860,1.852,0,11
1.512,-1.846,-3.312,0,6
-10.666,13.668,-0.455,0,8
-11.607,14.880,4.871,0,14
-10.652,13.564,-2.481,0,6
-14.132,18.109,-2.639,0,6
-11.140,14.164,-2.061,0,7
-4.592,5.474,-1.366,0,7
1.941,-3.183,-2.692,0,6
1.924,-3.224,-3.494,0,5
-9.544,12.007,0.985,0,10
-11.885,14.816,3.062,0,12
-11.897,14.817,4.058,0,13
-11.861,14.800,12.063,0,21
-11.902,14.822,5.717,0,15
-11.906,14.823,6.925,0,16
-11.908,14.821,8.033,0,17
-11.911,14.819,9.018,0,18
-11.914,14.817,10.003,0,19
-11.918,14.817,11.028,0,20
-11.922,14.814,13.533,0,22
-11.945,14.827,16.195,0,25
-12.248,15.175,17.948,0,27
-12.104,14.767,15.100,0,24
-12.195,14.717,-2.242,0,7
-12.151,14.755,17.191,0,26
-12.206,14.719,2.315,0,11
-12.271,14.704,12.810,0,22
-12.371,14.660,4.742,0,14
-13.457,16.480,-2.073,0,7
-13.876,17.207,-2.638,0,6
-12.451,14.634,6.323,0,15
-12.481,14.614,-1.201,0,8
-12.497,14.611,0.036,0,9
-12.499,14.613,1.541,0,10
-12.499,14.620,11.588,0,20
-12.511,14.612,7.470,0,16
-12.523,14.604,3.588,0,12
-12.498,14.623,14.063,0,23
-12.534,14.605,10.492,0,19
-12.536,14.602,9.490,0,18
-12.539,14.600,8.478,0,17
-12.526,14.623,18.521,0,27
-12.601,14.589,15.704,0,25
-12.650,14.562,5.537,0,14
-13.242,15.604,-2.001,0,7
-12.671,14.564,16.575,0,25
-12.783,14.511,0.787,0,10
-12.795,14.508,2.838,0,12
-12.761,14.535,17.692,0,27
-12.844,14.501,14.806,0,24
-12.856,14.490,12.306,0,21
-12.859,14.490,13.327,0,22
-12.919,14.462,-1.894,0,7
-12.987,14.435,-0.593,0,8
-13.013,14.429,4.266,0,13
-13.053,14.417,2.084,0,11
-13.053,14.415,6.857,0,16
-13.089,14.407,11.036,0,20
-13.136,14.389,7.933,0,17
-13.146,14.383,9.987,0,19
-13.157,14.380,8.952,0,18
-13.316,14.697,18.706,0,28
-13.264,14.339,5.034,0,14
-13.266,14.338,6.066,0,15
-14.053,16.419,-2.609,0,6
-13.272,14.350,16.070,0,25
-13.314,14.321,3.482,0,12
-13.280,14.344,17.107,0,26
-13.291,14.339,14.013,0,23
-13.385,14.298,1.337,0,10
-13.402,14.290,-1.269,0,8
-13.440,14.282,11.764,0,21
-13.443,14.282,12.817,0,22
-13.485,14.273,15.300,0,24
-13.509,14.270,17.980,0,27
-13.574,14.232,2.670,0,12
-13.627,14.212,-2.229,0,7
-14.127,15.840,-2.044,0,7
-13.688,14.192,7.338,0,16
-13.712,14.183,10.575,0,19
-13.769,14.162,8.457,0,17
-13.783,14.156,9.475,0,18
-13.874,14.125,0.705,0,10
-13.866,14.124,5.575,0,14
-13.843,14.247,21.230,0,30
-13.881,14.121,6.541,0,15
-13.859,14.139,14.547,0,23
-14.663,17.506,-2.647,0,6
-13.932,14.105,1.917,0,11
-13.894,14.123,13.507,0,22
-13.948,14.093,-0.700,0,8
-14.871,18.440,-2.627,0,6
-14.003,14.483,19.197,0,28
-14.007,14.418,16.513,0,25
-14.062,14.421,17.322,0,26
-14.065,14.055,3.338,0,12
-14.115,14.637,18.383,0,27
-14.151,14.811,20.242,0,29
-14.085,14.053,11.322,0,20
-14.142,14.023,-1.523,0,7
-14.197,14.373,15.683,0,25
-14.677,16.557,-1.972,0,7
-14.296,13.974,7.874,0,17
-14.333,13.962,10.062,0,19
-14.403,13.935,2.604,0,11
-14.349,13.966,17.975,0,27
-14.428,13.928,1.274,0,10
-14.403,13.936,9.003,0,18
-14.456,13.916,4.071,0,13
-14.427,13.932,12.927,0,22
-14.491,13.901,-2.246,0,7
-14.445,13.933,15.063,0,24
-14.505,13.898,0.262,0,9
-14.487,13.905,6.056,0,15
-14.496,13.902,7.070,0,16
-14.482,13.915,14.049,0,23
-14.530,13.900,16.871,0,26
-14.804,15.850,-2.596,0,6
-14.692,13.829,-0.877,0,8
-14.798,15.232,-1.980,0,7
-14.689,13.838,10.798,0,20
-14.696,14.224,18.806,0,28
-14.770,14.120,12.037,0,21
-14.785,13.799,5.313,0,14
-14.741,13.845,21.174,0,30
-14.827,13.783,3.346,0,12
-14.818,14.169,16.154,0,25
-14.881,13.767,1.946,0,11
-14.884,14.224,8.376,0,17
-14.980,13.727,-1.636,0,7
-14.954,14.198,9.551,0,18
-15.036,16.748,-2.670,0,6
-14.984,14.179,17.514,0,26
-15.020,14.187,13.441,0,22
-14.997,14.592,19.761,0,29
-15.093,13.693,0.823,0,10
-15.083,13.694,4.576,0,13
-15.119,13.678,-0.208,0,9
-15.020,14.652,21.003,0,30
-15.090,13.746,7.583,0,16
-15.102,13.687,6.519,0,15
-15.092,14.161,14.612,0,23
-15.192,14.119,15.428,0,24
-15.283,13.623,2.674,0,12
-15.257,14.092,11.342,0,20
-15.294,14.076,10.277,0,19
-15.340,13.606,9.141,0,18
-15.355,13.604,12.374,0,21
-15.328,13.713,18.665,0,28
-15.362,13.603,14.051,0,23
-15.387,13.591,8.316,0,17
-15.358,13.606,16.624,0,25
-15.447,13.561,-0.994,0,8
-15.443,13.568,5.794,0,15
-15.460,13.559,3.833,0,13
-15.334,15.831,-1.965,0,7
-15.524,13.538,1.489,0,10
-15.551,13.526,-2.160,0,7
-15.485,13.557,13.181,0,22
-15.471,13.568,17.709,0,27
-15.514,13.552,14.924,0,24
-15.585,13.522,10.822,0,20
-15.570,13.533,15.830,0,25
-15.576,13.915,19.460,0,28
-15.688,13.481,7.053,0,16
-15.721,13.465,0.365,0,9
-15.682,13.485,9.877,0,19
-15.590,14.979,-1.934,0,7
-15.752,13.457,5.007,0,14
-15.736,13.469,11.630,0,20
-15.921,13.396,3.111,0,12
-15.925,13.394,2.224,0,11
-16.010,13.366,-0.395,0,8
-16.016,13.362,-1.530,0,7
-16.007,13.369,7.807,0,17
-16.026,13.364,8.807,0,18
-15.994,13.379,17.087,0,26
-15.995,13.384,18.343,0,27
-16.063,13.347,6.291,0,15
-15.619,16.141,-2.648,0,6
-16.072,13.349,12.650,0,21
-16.074,13.349,13.774,0,23
-16.138,13.320,4.279,0,13
-16.188,13.303,1.051,0,10
-16.173,13.316,15.319,0,24
-16.265,13.280,10.394,0,19
-16.244,13.291,16.264,0,25
-16.367,13.241,-2.266,0,7
-16.376,13.235,5.518,0,14
-15.473,17.473,-2.643,0,6
-16.259,13.676,19.058,0,28
-16.389,13.237,14.524,0,23
-16.415,13.223,9.564,0,18
-16.473,13.201,0.267,0,9
-16.422,13.226,11.272,0,20
-16.444,13.214,7.141,0,16
-16.569,13.165,3.618,0,12
-16.588,13.160,1.762,0,11
-16.605,13.150,-0.952,0,8
-16.592,13.158,2.662,0,12
-16.547,13.185,17.771,0,27
-16.604,13.160,12.080,0,21
-16.633,13.146,8.273,0,17
-16.625,13.151,13.214,0,22
-16.165,15.244,-2.556,0,6
-16.752,13.102,4.816,0,14
-16.742,13.114,16.939,0,26
-16.745,13.132,18.636,0,27
-16.817,13.080,6.413,0,15
-16.426,14.644,-1.988,0,7
-16.922,13.041,-1.722,0,7
-16.851,13.078,15.677,0,25
-16.944,13.035,1.027,0,10
-16.967,13.028,8.994,0,18
-16.975,13.029,10.722,0,20
-16.139,15.895,-2.058,0,7
-16.978,13.028,13.998,0,23
-17.092,12.983,7.597,0,16
-17.070,12.997,14.870,0,24
-17.132,12.970,5.599,0,14
-17.118,12.975,9.891,0,19
-16.923,13.447,19.488,0,28
-17.191,12.947,4.152,0,13
-17.197,12.943,3.168,0,12
-17.158,12.965,11.509,0,20
-17.254,12.925,2.273,0,11
-17.204,12.948,12.646,0,21
-17.371,12.879,-0.984,0,8
-17.267,12.929,18.027,0,27
-17.297,12.915,16.371,0,25
-17.483,12.843,-2.258,0,7
-17.459,12.853,6.857,0,16
-17.460,12.853,8.339,0,17
-17.513,12.832,4.905,0,14
-17.460,12.859,17.250,0,26
-17.494,12.844,13.406,0,22
-17.587,12.807,1.530,0,10
-16.036,16.825,-2.647,0,6
-17.654,12.785,0.731,0,10
-17.596,12.810,15.552,0,24
-17.689,12.772,9.285,0,18
-17.668,12.784,14.382,0,23
-17.731,12.754,6.098,0,15
-17.713,12.767,10.552,0,19
-17.738,12.757,12.025,0,21
-17.509,13.244,18.912,0,28
-17.801,12.731,3.653,0,12
-17.886,12.700,2.805,0,12
-17.868,12.708,7.544,0,16
-17.927,12.685,-1.564,0,7
-17.979,12.664,-0.459,0,8
-17.936,12.697,18.494,0,27
-16.817,15.448,-1.979,0,7
-18.022,12.656,12.811,0,22
-18.010,12.662,16.688,0,26
-18.068,12.640,11.282,0,20
-18.136,12.612,4.439,0,13
-18.141,12.610,5.420,0,14
-18.212,12.586,2.057,0,11
-18.122,12.627,17.662,0,27
-18.180,12.600,8.636,0,17
-18.219,12.581,6.741,0,16
-18.197,12.594,13.712,0,23
-18.199,12.598,15.069,0,24
-18.234,12.579,9.898,0,19
-18.302,12.554,1.240,0,10
-17.249,14.771,-1.956,0,7
-18.322,12.546,0.334,0,9
-16.588,16.176,-2.669,0,6
-18.306,12.558,15.904,0,25
-18.440,12.503,-2.165,0,7
-18.296,12.606,21.214,0,30
-18.524,12.472,-1.066,0,8
-18.504,12.482,3.287,0,12
-18.159,13.016,19.350,0,28
-18.817,12.367,-0.287,0,9
-18.811,12.373,4.020,0,13
-18.495,12.925,10.644,0,19
-18.849,12.361,2.555,0,11
-18.508,12.924,12.170,0,21
