-4.143,-48.733,15.008
-4.122,-48.727,14.119
-2.825,-48.275,8.631
-2.778,-48.260,6.387
-2.753,-48.252,5.238
-2.862,-48.267,16.569
-2.797,-48.255,15.688
-2.759,-48.242,13.528
-2.727,-48.235,12.691
-2.699,-48.228,11.873
-2.700,-48.225,11.041
-2.673,-48.218,10.170
-2.609,-48.200,7.541
-2.699,-48.210,18.318
-2.655,-48.201,17.508
-2.607,-48.185,14.713
-2.476,-48.148,9.381
-2.223,-48.061,5.815
-2.100,-48.015,8.388
-2.058,-48.004,6.942
-2.105,-48.005,16.954
-1.999,-47.975,12.433
-1.986,-47.971,11.554
-1.972,-47.966,10.693
-1.843,-47.928,5.075
-1.901,-47.934,15.266
-1.773,-47.898,9.902
-1.581,-47.832,9.094
-1.560,-47.824,7.812
-1.524,-47.814,6.329
-1.423,-47.764,17.366
-1.413,-47.760,16.564
-1.371,-47.748,14.681
-1.347,-47.742,13.844
-1.329,-47.737,12.941
-1.317,-47.732,12.064
-1.298,-47.727,11.204
-1.199,-47.699,7.079
-1.169,-47.690,5.558
-1.238,-47.697,15.730
-1.109,-47.662,10.374
-1.075,-47.651,8.435
1.039,-46.900,9.175
1.097,-46.887,7.463
1.099,-46.884,6.606
1.119,-46.879,5.690
1.142,-46.862,11.251
1.201,-46.845,8.333
1.427,-46.763,10.451
1.702,-46.665,9.646
1.776,-46.648,7.093
1.783,-46.644,6.259
1.804,-46.638,5.303
1.872,-46.610,8.802
1.883,-46.606,7.936
1.949,-46.578,11.050
2.212,-46.485,10.277
2.433,-46.417,6.670
2.441,-46.413,5.862
2.497,-46.388,9.519
2.531,-46.380,8.360
2.544,-46.376,7.520
2.709,-46.311,11.433
2.969,-46.232,5.256
2.981,-46.219,10.652
4.413,-45.718,6.124
4.437,-45.702,10.279
4.477,-45.692,8.280
4.505,-45.685,7.164
4.648,-45.625,9.343
4.746,-45.603,5.405
5.093,-45.473,7.795
5.120,-45.467,6.656
5.151,-45.448,10.017
5.182,-45.441,8.727
5.425,-45.360,5.913
5.635,-45.287,5.140
5.639,-45.275,9.398
5.691,-45.264,7.270
5.763,-45.236,8.208
5.970,-45.164,6.498
8.036,-44.429,6.560
8.139,-44.397,5.308
8.562,-44.245,5.974
8.623,-44.225,7.249
8.863,-44.117,5.086
9.846,-43.776,6.903
8.188,-42.278,5.654
8.685,-42.098,8.623
7.699,-40.885,5.500
7.583,-40.569,6.305
7.465,-37.121,5.026
4.478,-56.775,13.613
4.459,-56.770,5.118
0.472,-57.838,6.881
0.334,-57.114,17.607
0.318,-57.148,15.047
0.292,-57.165,14.146
0.342,-57.096,12.594
0.029,-57.328,19.455
0.232,-57.123,15.908
0.269,-57.136,11.755
0.255,-57.158,10.529
0.279,-57.140,9.030
-1.125,-58.661,19.421
0.246,-57.150,7.898
-1.247,-58.802,15.263
-1.269,-58.806,11.964
-1.260,-58.810,11.152
0.219,-57.135,5.105
-1.251,-58.789,8.258
-1.264,-58.800,7.413
-1.261,-58.811,6.581
-1.777,-58.990,19.063
-1.786,-58.999,10.538
-1.682,-58.180,15.829
-1.579,-58.073,12.226
-1.564,-58.059,8.605
-8.867,-61.222,15.831
-8.764,-61.161,12.221
-8.826,-61.196,8.623
-11.027,-61.163,9.888
-11.039,-61.165,7.662
-11.775,-61.490,12.210
-11.760,-61.429,8.442
-11.762,-61.421,6.497
-19.168,-64.041,17.705
-19.107,-64.027,15.784
-19.323,-64.179,12.229
-19.989,-64.380,16.295
-19.955,-64.372,15.323
-19.989,-64.424,11.821
-19.261,-64.083,6.462
-19.930,-64.336,13.210
-25.280,-66.208,15.835
-26.775,-66.922,15.226
-26.750,-66.918,14.368
-25.347,-66.243,10.544
-25.336,-66.248,9.555
-25.949,-66.424,18.482
-25.982,-66.452,17.278
-26.709,-66.882,10.500
-26.825,-66.834,16.474
-26.050,-66.484,12.255
-26.034,-66.495,10.207
-26.614,-66.656,18.923
-26.782,-66.798,12.653
-26.716,-66.803,8.610
-25.990,-66.452,7.243
-26.780,-66.754,11.838
-26.785,-66.795,7.772
-26.791,-66.816,5.865
-4.585,-48.885,22.658
-4.587,-48.885,21.826
-4.493,-48.852,20.991
-4.714,-48.187,14.074
-4.878,-48.153,6.811
-4.742,-48.139,17.677
-4.172,-48.074,10.433
-2.716,-48.220,20.348
-2.575,-48.172,19.134
8.036,-44.480,21.307
8.014,-44.830,19.451
8.110,-44.964,20.595
8.860,-44.789,21.028
9.807,-43.765,7.897
9.826,-43.762,13.360
11.791,-54.190,20.417
11.421,-54.313,5.629
11.293,-54.368,21.018
7.214,-55.933,14.202
6.836,-56.944,7.999
6.616,-56.782,15.318
-25.955,-33.531,16.674
-25.872,-33.512,18.486
-25.885,-33.511,17.583
-25.966,-33.531,10.991
-25.975,-33.532,8.050
-25.923,-33.516,10.163
-25.744,-33.449,20.783
-25.520,-33.914,19.476
-25.680,-33.700,15.889
-25.838,-33.477,12.940
-25.821,-33.475,11.828
-25.846,-33.492,9.354
-25.521,-33.957,8.671
-25.644,-33.417,15.024
-25.388,-33.326,13.643
-25.263,-33.297,19.000
-25.212,-33.268,16.816
-25.320,-33.306,7.614
-25.157,-33.306,12.268
-25.028,-33.192,21.069
-25.088,-33.222,15.567
-25.129,-33.239,9.650
-25.143,-33.240,8.596
-20.712,-31.664,20.995
-20.804,-31.698,12.965
-20.624,-31.648,18.915
-20.801,-31.304,11.691
-20.624,-31.637,16.700
-20.636,-31.645,15.592
-20.589,-31.344,18.128
-20.599,-31.511,14.039
-20.631,-31.566,8.043
-20.643,-31.649,5.497
-20.570,-31.626,9.325
-20.359,-31.215,17.332
-20.442,-31.424,6.773
-20.095,-31.974,19.479
-20.047,-31.484,20.578
-20.152,-31.417,13.346
-20.035,-31.099,18.752
-20.043,-31.437,12.083
-20.014,-31.261,15.233
-20.076,-31.211,11.126
-20.063,-31.322,10.205
-20.022,-31.458,8.658
-20.078,-31.265,7.541
-19.818,-31.845,15.874
-20.006,-31.060,14.437
-20.028,-31.438,6.071
-19.854,-31.363,16.674
-19.970,-31.497,5.060
-19.808,-31.078,17.903
-19.739,-31.332,9.467
-19.592,-31.299,19.456
-19.556,-31.214,21.376
-19.358,-31.626,18.542
-19.465,-31.227,13.808
-19.420,-31.210,12.939
-19.357,-31.191,15.789
-19.405,-31.210,11.604
-19.312,-31.174,17.279
-19.387,-31.204,10.654
-19.416,-31.216,8.131
-19.284,-31.164,14.855
-19.360,-31.195,5.689
-19.116,-31.603,12.257
-19.199,-31.137,7.354
-19.017,-31.064,20.763
-19.055,-31.087,9.931
-19.095,-31.101,6.457
-18.780,-30.983,16.660
-18.788,-30.988,13.394
-18.750,-30.979,14.245
-18.745,-30.584,17.415
-18.757,-30.983,11.177
-18.681,-30.952,15.390
-18.690,-30.956,12.043
-18.694,-30.873,8.041
-18.610,-30.933,9.232
-18.658,-30.591,7.080
-18.565,-30.917,5.880
-18.434,-30.544,18.656
-18.278,-30.800,21.054
-18.346,-30.423,14.768
-18.226,-30.483,13.724
-18.079,-30.737,12.921
-18.115,-30.583,11.627
-18.006,-30.711,16.726
-18.099,-30.751,8.588
-17.979,-30.573,17.948
-18.143,-30.374,6.501
-18.092,-30.417,7.737
-18.072,-30.838,5.067
-17.933,-30.686,15.624
-17.973,-30.705,9.670
-17.888,-30.531,10.821
-17.748,-30.621,19.109
-17.758,-30.630,5.798
-17.558,-30.546,20.764
-17.352,-30.296,15.235
-17.357,-30.483,13.253
-17.312,-30.146,17.408
-17.387,-30.500,8.209
-17.270,-30.125,18.674
-17.290,-30.462,9.317
-17.335,-30.523,5.057
-17.130,-30.270,14.389
-17.107,-30.465,12.269
-17.071,-30.337,11.164
-17.086,-30.289,10.308
-17.120,-30.290,7.437
-17.131,-30.286,6.583
-14.650,-29.514,20.837
-14.151,-29.339,20.192
-14.161,-29.346,19.354
-14.137,-29.191,18.178
-14.141,-29.009,17.349
-14.160,-29.344,16.596
-14.170,-29.349,15.733
-14.169,-29.354,13.141
-14.178,-29.359,12.338
-14.175,-29.021,11.613
-14.193,-29.020,10.058
-14.182,-29.367,9.327
-14.192,-29.370,8.473
-14.156,-29.361,6.058
-14.069,-29.315,5.249
-12.943,-28.911,18.483
-12.929,-28.916,14.089
-12.885,-28.902,12.094
-12.747,-28.839,21.057
-12.756,-28.842,20.244
-12.808,-28.868,15.827
-12.724,-28.835,17.432
-12.753,-28.851,14.997
-12.775,-28.860,13.046
-12.821,-28.885,9.221
-12.598,-28.792,19.457
-12.597,-28.792,16.621
-12.662,-28.828,11.161
-12.610,-28.811,9.995
-12.298,-28.549,18.102
-12.332,-28.413,13.858
-12.210,-28.663,12.486
-12.185,-28.350,11.644
-12.081,-28.605,20.653
-12.069,-28.433,17.184
-12.075,-28.611,15.586
-12.109,-28.408,10.491
-12.004,-28.585,18.896
-11.923,-28.551,19.857
-12.046,-28.610,9.393
-11.864,-28.532,16.381
-11.802,-28.515,13.243
-11.857,-28.546,5.809
-11.788,-28.520,8.632
-11.664,-28.354,14.928
-11.542,-28.418,17.864
-11.553,-28.427,14.067
-11.588,-28.444,11.118
-11.402,-28.367,21.026
-11.469,-28.401,12.297
-11.525,-28.430,7.666
-11.463,-28.402,9.952
-11.319,-28.341,19.298
-11.313,-28.336,16.931
-11.327,-28.346,15.810
-11.240,-28.307,20.225
-11.364,-28.372,6.876
-11.053,-28.246,18.531
-11.164,-28.298,9.184
-11.042,-28.249,13.397
-11.130,-28.290,6.070
-11.066,-28.264,8.391
-9.849,-27.670,17.634
-9.817,-27.807,19.887
-9.765,-27.781,20.999
-9.752,-27.786,19.075
-9.872,-27.746,7.381
-9.869,-27.687,6.530
-9.831,-27.827,9.481
-9.734,-27.785,14.460
-9.648,-27.758,12.263
-9.691,-27.778,8.638
-9.590,-27.740,11.058
-9.390,-27.659,18.348
-9.376,-27.654,16.403
-9.348,-27.645,15.574
-9.373,-27.659,13.563
-9.178,-27.579,20.480
-9.264,-27.625,10.105
-9.140,-27.570,17.206
-9.074,-27.545,19.664
-9.080,-27.558,12.792
-9.094,-27.567,11.664
-9.015,-27.528,14.818
-6.918,-27.519,12.219
-6.813,-27.290,8.650
-6.439,-27.015,11.409
-6.418,-27.063,7.867
-6.576,-27.916,8.201
-6.424,-27.909,18.957
-6.287,-27.357,15.033
-6.527,-27.770,5.042
-6.318,-27.304,7.082
-6.236,-27.631,10.892
-6.169,-27.780,11.702
-6.105,-27.865,6.540
-6.098,-27.981,7.511
-6.857,-33.006,15.393
-6.805,-33.099,21.031
-6.703,-33.322,18.957
-6.767,-33.299,11.766
-6.699,-33.465,16.065
-6.745,-33.394,8.876
-6.764,-33.349,5.317
-6.775,-33.926,20.988
-6.782,-33.922,20.140
-6.778,-33.941,18.376
-6.783,-33.932,17.533
-6.788,-33.924,16.719
-6.784,-33.950,15.360
-6.787,-33.939,14.540
-6.795,-33.919,12.981
-6.792,-33.939,11.246
-6.784,-33.972,10.428
-6.789,-33.964,9.619
-6.794,-33.941,8.260
-6.786,-33.972,7.401
-6.792,-33.964,6.547
-8.123,-41.236,23.018
-8.127,-41.228,22.189
-8.130,-41.218,21.343
-8.134,-41.210,20.538
-8.129,-41.226,19.692
-8.132,-41.215,18.866
-8.126,-41.230,18.058
-8.129,-41.220,17.221
-8.132,-41.210,16.341
-8.126,-41.223,15.532
-8.121,-41.237,14.686
-8.125,-41.229,13.864
-8.118,-41.242,13.037
-8.122,-41.235,12.233
-8.116,-41.249,11.396
-8.120,-41.241,10.557
-8.123,-41.230,9.707
-8.117,-41.243,8.889
-8.119,-41.231,8.072
-8.123,-41.223,7.219
-8.117,-41.236,6.398
-8.120,-41.225,5.489
-7.869,-41.943,22.730
-7.879,-41.919,20.256
-7.881,-41.908,19.339
-7.894,-41.874,15.961
-7.876,-41.916,11.838
-7.872,-41.923,8.518
-7.867,-41.930,5.166
-7.468,-41.537,18.417
-7.509,-41.554,15.138
-7.285,-41.330,22.752
-7.469,-41.542,14.318
-7.292,-41.360,19.452
-7.483,-41.547,11.006
-7.540,-41.589,7.631
-7.669,-41.780,6.000
-7.240,-41.289,15.865
-7.670,-42.073,17.587
-7.181,-41.169,12.226
-7.201,-41.169,10.155
-7.468,-41.562,6.828
-7.769,-42.224,12.620
-7.165,-41.187,8.458
-7.114,-41.140,6.169
-7.727,-42.331,15.269
-7.611,-42.306,21.667
-7.641,-42.235,13.906
-7.639,-42.236,9.925
-7.658,-42.504,18.827
-7.618,-42.262,7.200
-7.653,-42.542,19.800
-7.629,-42.619,23.098
-7.660,-42.522,9.061
-7.630,-42.614,16.170
-6.646,-40.969,10.698
-7.640,-42.574,8.103
-7.606,-42.676,11.943
-6.527,-40.927,8.033
-6.417,-40.892,12.201
-6.483,-40.911,6.701
-7.610,-42.649,5.469
-7.535,-42.876,22.343
-7.540,-42.866,21.091
-7.542,-42.856,18.042
-7.538,-42.867,17.170
-7.545,-42.842,14.645
-7.543,-42.852,13.342
-7.545,-42.856,11.152
-7.541,-42.847,6.646
-7.518,-42.926,10.326
-7.463,-43.068,15.436
-7.482,-43.014,7.445
-7.438,-43.143,19.277
-7.427,-43.171,20.312
-7.431,-43.160,12.592
-7.434,-43.150,9.525
-7.422,-43.180,8.631
-7.358,-43.367,22.951
-7.372,-43.329,16.515
-7.379,-43.307,14.010
-7.387,-43.266,5.944
-7.318,-43.479,18.547
-7.339,-43.420,11.784
-7.300,-43.526,17.607
-7.297,-43.546,10.831
-7.275,-43.596,14.803
-7.259,-43.638,13.283
-7.271,-43.600,6.907
-7.265,-43.633,7.923
-7.192,-43.741,22.245
-7.213,-43.766,19.743
-7.257,-43.642,5.216
-7.214,-43.776,15.817
-7.210,-43.781,10.028
-7.192,-43.829,9.151
-7.053,-43.878,21.422
-7.160,-43.911,12.431
-7.136,-43.986,16.945
-6.771,-45.009,20.420
-6.750,-45.065,16.774
-6.762,-45.038,10.341
-6.746,-45.077,13.750
-6.763,-45.018,6.045
-6.755,-45.047,5.113
-6.688,-45.237,17.910
-6.655,-45.327,19.338
-6.677,-45.279,7.249
-6.606,-45.432,22.257
-6.641,-45.376,12.100
-6.627,-45.410,14.977
-6.618,-45.437,9.622
-6.586,-45.529,16.132
-6.562,-45.588,23.096
-6.596,-45.512,8.479
-6.571,-45.575,10.954
-6.527,-45.683,18.569
-6.517,-45.720,21.513
-6.527,-45.693,17.231
-6.535,-45.666,13.199
-6.515,-45.732,20.665
-6.526,-45.688,14.219
-6.534,-45.669,6.492
-6.531,-45.680,5.646
-6.452,-45.894,19.873
-6.450,-45.915,7.756
-6.439,-45.945,10.250
-6.408,-46.021,15.477
-6.406,-46.036,12.491
-6.404,-46.047,11.645
-6.373,-46.110,17.901
-6.398,-46.062,9.118
-6.347,-46.183,22.576
-6.345,-46.194,16.574
-6.328,-46.239,19.157
-6.335,-46.234,5.098
-6.307,-46.305,14.736
-6.304,-46.313,13.691
-6.313,-46.289,7.051
-6.300,-46.330,6.073
-6.281,-46.389,8.393
-6.247,-46.470,20.413
-6.271,-46.419,10.911
-6.099,-46.543,21.563
-6.219,-46.562,9.742
-6.194,-46.615,17.277
-6.168,-46.679,18.480
-6.172,-46.684,15.923
-6.178,-46.667,12.982
-6.160,-46.723,12.049
-6.123,-46.806,23.035
-6.128,-46.806,19.695
-6.144,-46.774,7.701
-6.092,-46.911,14.230
-6.100,-46.901,9.009
-6.101,-46.896,5.482
-6.073,-46.959,15.176
-6.042,-47.000,22.253
-6.085,-46.929,6.573
-5.995,-47.172,17.868
-5.973,-47.235,19.026
-5.959,-47.281,13.502
-5.958,-47.301,8.313
-5.936,-47.348,12.593
-5.899,-47.438,20.220
-5.922,-47.392,9.709
-5.927,-47.380,7.220
-5.894,-47.461,15.800
-5.851,-47.559,22.965
-5.769,-47.491,21.667
-5.851,-47.581,14.688
-5.832,-47.633,17.172
-5.813,-47.693,11.879
-5.826,-47.665,5.508
-5.812,-47.704,10.865
-5.064,-47.291,22.724
-5.774,-47.788,18.403
-5.785,-47.778,8.989
-5.756,-47.833,19.523
-5.715,-47.957,16.407
-5.720,-47.948,13.958
-5.714,-47.956,13.110
-5.727,-47.936,7.822
-4.841,-48.101,22.728
-2.835,-48.255,21.853
-2.545,-48.154,23.093
-2.228,-48.034,22.334
-2.278,-48.056,21.311
-1.776,-47.876,23.106
-1.414,-47.740,22.359
4.443,-56.942,8.902
0.643,-57.808,15.794
0.541,-57.876,12.207
0.517,-57.920,8.577
-1.289,-58.819,9.931
-1.278,-58.810,18.412
-1.292,-58.822,14.184
-1.718,-58.967,17.735
-6.106,-60.162,19.375
-6.152,-60.250,8.600
-6.464,-60.090,15.821
-6.040,-60.395,18.103
-6.030,-60.472,14.897
-6.037,-60.473,14.081
-6.068,-60.505,5.783
-6.102,-60.491,6.912
-6.052,-60.513,11.460
-6.083,-60.498,10.591
-6.092,-60.497,9.784
-6.103,-60.502,7.791
-6.668,-60.526,12.224
-6.403,-60.693,18.848
-6.905,-60.455,19.438
-6.714,-60.745,8.317
-6.680,-60.738,15.385
-6.810,-60.771,5.953
-8.013,-61.055,19.433
-8.027,-61.202,6.690
-8.034,-61.206,7.524
-8.004,-61.206,14.974
-8.011,-61.207,14.122
-8.287,-61.295,5.784
-8.326,-61.325,9.809
-8.372,-61.338,11.127
-8.491,-61.365,17.713
-8.523,-61.372,18.863
-8.691,-61.438,7.099
-8.684,-61.447,14.594
-8.735,-61.465,13.778
-8.811,-61.497,10.471
-8.828,-61.593,7.904
-8.836,-61.599,6.304
-8.858,-61.742,11.640
-11.065,-61.148,6.861
-11.045,-61.146,11.138
-11.037,-61.127,14.949
-11.783,-61.423,5.555
-11.761,-61.427,13.665
-14.153,-63.280,15.816
-14.208,-63.374,12.223
-14.193,-63.712,11.025
-14.201,-63.726,10.166
-14.284,-63.389,8.601
-14.444,-63.489,5.927
-14.343,-63.445,19.018
-14.440,-63.736,15.208
-14.648,-63.722,7.523
-14.669,-63.723,6.676
-14.673,-63.741,14.404
-14.721,-63.611,11.640
-14.677,-63.727,18.266
-14.917,-63.667,10.685
-14.938,-63.677,9.824
-19.087,-64.044,8.608
-19.174,-64.065,5.037
-19.292,-64.113,11.132
-19.191,-64.035,19.410
-19.296,-64.090,14.064
-19.284,-64.091,16.901
-19.896,-64.507,19.435
-19.953,-64.550,17.300
-19.952,-64.474,18.619
-19.988,-64.355,10.522
-19.998,-64.359,9.657
-22.082,-66.205,9.819
-22.120,-66.212,6.384
-22.086,-66.205,15.618
-22.101,-66.211,14.398
-22.142,-66.207,11.912
-22.234,-66.251,7.197
-22.241,-66.254,8.597
-22.254,-66.257,18.000
-22.397,-66.309,10.587
-22.369,-66.296,19.203
-22.679,-66.626,8.011
-22.655,-66.629,15.201
-22.744,-66.760,14.360
-22.741,-66.712,11.636
-22.696,-66.415,5.846
-22.982,-66.752,18.846
-25.267,-66.700,19.442
-25.180,-66.193,5.047
-25.260,-66.205,8.604
-25.336,-66.243,6.761
-25.309,-66.231,14.424
-25.318,-66.232,13.545
-25.303,-66.205,12.646
-25.300,-66.227,18.024
-25.311,-66.229,16.884
-25.943,-66.723,15.852
-25.994,-66.484,5.046
-26.082,-66.504,6.414
-26.081,-66.502,9.356
-26.042,-66.485,15.052
-26.067,-66.505,14.235
-26.068,-66.496,13.246
-26.054,-66.448,19.495
-26.746,-66.741,6.927
-26.777,-66.806,13.572
-26.793,-66.754,9.636
-32.089,-69.008,16.873
-34.800,-70.718,19.823
-34.806,-70.717,19.003
-46.872,-40.911,20.955
-46.894,-40.950,9.604
-46.822,-40.904,16.707
-46.968,-40.834,7.222
-46.687,-40.860,18.281
-46.647,-40.846,14.557
-46.618,-40.837,7.992
-46.634,-40.836,6.484
-46.524,-40.806,13.710
-46.454,-40.774,17.468
-46.410,-40.777,10.268
-46.350,-40.747,12.139
-46.348,-40.752,11.281
-46.403,-40.751,5.659
-46.259,-40.709,19.035
-46.128,-40.810,8.678
-46.226,-40.693,15.320
-46.231,-40.700,12.973
-46.152,-40.655,20.710
-46.115,-40.673,9.503
-46.149,-40.667,7.319
-46.040,-40.629,16.758
-40.798,-39.882,15.946
-40.797,-39.887,15.135
-40.795,-39.892,14.297
-40.795,-39.897,13.479
-40.829,-39.894,10.304
-40.796,-39.875,9.434
-40.795,-39.880,8.626
-40.796,-39.884,7.753
-40.796,-39.888,6.895
-40.796,-39.892,6.087
-40.481,-39.789,19.498
-40.802,-39.555,5.096
-40.702,-39.533,12.284
-40.920,-39.064,19.472
-40.198,-39.340,15.891
-40.166,-39.141,8.682
-39.934,-38.462,15.779
-39.149,-38.981,12.312
-39.946,-38.475,12.142
-39.988,-38.483,6.081
-39.996,-38.368,17.412
-39.909,-38.450,12.966
-39.312,-38.855,8.681
-39.895,-38.379,18.844
-39.862,-38.455,9.395
-39.789,-38.422,8.139
-39.377,-38.579,19.473
-39.522,-38.328,16.680
-39.472,-38.292,21.013
-39.510,-38.361,5.059
-39.434,-38.291,18.148
-39.460,-38.294,14.897
-39.464,-38.296,14.072
-39.464,-38.312,11.444
-39.465,-38.316,10.607
-39.412,-38.285,7.400
-39.379,-38.268,6.588
-39.176,-38.215,15.867
-39.213,-38.228,9.805
-39.173,-38.190,13.305
-39.168,-38.193,5.798
-39.037,-38.158,18.851
-39.054,-38.156,17.382
-39.051,-38.189,12.255
-37.780,-37.898,19.473
-37.955,-37.754,15.657
-37.893,-37.748,16.817
-37.885,-37.738,5.566
-37.805,-37.728,9.627
-37.257,-37.503,20.836
-34.961,-36.979,15.868
-34.918,-36.916,12.225
-34.952,-36.793,18.680
-34.934,-36.816,17.765
-34.935,-36.776,16.918
-34.930,-36.796,14.894
-34.923,-36.766,14.074
-34.901,-36.748,13.264
-34.914,-36.752,11.157
-34.885,-36.742,10.066
-34.856,-36.751,6.309
-34.272,-36.690,19.463
-34.417,-36.497,15.490
-34.277,-36.453,20.926
-34.321,-36.484,11.860
-34.224,-36.429,12.978
-34.258,-36.298,14.265
-34.341,-36.140,18.813
-34.335,-36.153,18.003
-34.086,-36.396,16.797
-33.330,-36.926,12.286
-33.198,-36.846,15.872
-33.506,-36.431,19.463
-33.694,-36.240,15.263
-33.517,-36.182,20.884
-33.614,-36.114,17.594
-33.498,-36.174,13.237
-33.330,-36.130,16.777
-33.157,-36.054,14.621
-33.157,-36.074,12.249
-33.119,-36.038,15.801
-33.014,-36.026,18.895
-32.963,-35.986,13.801
-32.892,-35.976,18.062
-32.752,-35.908,20.853
-32.698,-35.905,17.229
-32.586,-35.851,15.198
-32.563,-35.862,11.521
-32.425,-35.797,14.374
-32.285,-35.767,18.641
-32.142,-35.855,15.880
-32.165,-35.717,17.821
-32.198,-35.719,13.559
-32.108,-35.696,16.670
-11.601,-61.339,15.664
-11.760,-61.413,17.496
-11.647,-61.364,10.410
-19.208,-64.040,18.533
-19.201,-64.048,9.722
-19.238,-64.051,7.533
-25.905,-66.914,8.616
-25.404,-66.231,5.882
-25.392,-66.230,7.790
-25.318,-66.209,11.489
-26.021,-66.459,11.164
-37.652,-37.318,18.730
-37.455,-37.582,13.224
-37.592,-37.329,17.436
-34.073,-36.278,11.011
-32.654,-35.903,9.449
-14.473,-29.776,17.345
-12.903,-28.954,5.143
-12.551,-28.801,7.673
-12.236,-28.328,6.601
-9.648,-27.768,5.687
-9.257,-27.641,7.961
-9.139,-27.600,7.079
-9.021,-27.558,6.251
-6.371,-27.041,18.775
-6.366,-27.111,10.158
-6.266,-27.462,15.873
-6.236,-27.492,18.111
-6.135,-27.664,14.278
-6.102,-27.865,10.098
-6.569,-40.955,22.702
-32.030,-69.267,5.190
-32.078,-69.133,8.096
-32.023,-69.309,6.379
-32.026,-69.292,7.276
-32.028,-69.277,8.918
-32.046,-69.204,12.724
-32.018,-69.294,14.229
-32.093,-69.742,16.503
-32.140,-69.755,12.122
-32.134,-69.757,14.920
-32.088,-69.749,20.273
-32.096,-69.756,21.565
-32.099,-69.754,22.654
-32.302,-69.803,5.757
-32.195,-69.788,23.716
-32.366,-69.826,7.778
-32.265,-69.809,18.934
-32.439,-69.852,6.796
-32.455,-69.859,9.287
-32.475,-69.875,13.923
-32.692,-69.950,10.993
-33.035,-70.647,10.446
-33.032,-70.560,14.039
-33.042,-70.063,7.401
-33.376,-70.183,6.504
-33.393,-70.347,9.308
-33.355,-70.386,17.337
-33.462,-70.221,11.070
-33.508,-70.333,13.264
-33.508,-70.333,15.543
-33.465,-70.243,21.179
-33.511,-70.248,14.625
-33.504,-70.325,19.820
-33.508,-70.303,18.958
-33.477,-70.244,22.362
-33.542,-70.265,18.106
-33.640,-70.276,7.914
-33.681,-70.289,5.727
-33.657,-70.288,10.073
-33.686,-70.304,12.440
-33.715,-70.321,16.323
-33.872,-70.360,7.134
-33.894,-70.367,8.677
-33.915,-70.401,20.537
-33.960,-70.405,13.934
-34.003,-70.414,11.679
-34.157,-70.468,10.750
-34.181,-70.468,6.354
-34.171,-70.472,9.461
-34.135,-70.473,17.008
-34.167,-70.479,15.058
-34.217,-70.506,18.469
-34.290,-70.520,13.080
-34.387,-70.542,7.743
-34.377,-70.553,15.848
-34.429,-70.557,5.578
-34.547,-70.622,17.739
-34.569,-70.615,12.296
-34.613,-70.635,14.408
-34.644,-70.633,8.510
-34.654,-70.644,10.140
-34.626,-70.651,20.875
-34.690,-70.646,6.979
-34.723,-70.670,11.349
-34.775,-70.699,16.566
-34.797,-70.743,21.897
-34.899,-70.738,13.622
-34.921,-70.736,9.357
-34.941,-70.738,6.202
-34.914,-70.742,15.209
-36.038,-71.133,10.499
-36.083,-71.170,19.916
-36.130,-71.173,14.372
-36.129,-71.158,8.418
-36.207,-71.206,15.973
-36.248,-71.200,5.486
-36.281,-71.223,13.162
-36.310,-71.243,17.215
-36.308,-71.221,6.842
-36.371,-71.251,11.864
-36.458,-71.298,19.158
-36.461,-71.299,18.191
-36.486,-71.292,9.851
-36.516,-71.312,15.173
-36.598,-71.331,11.044
-36.620,-71.329,7.744
-36.690,-71.362,9.052
-36.740,-71.389,13.870
-36.732,-71.371,6.156
-36.794,-71.415,16.586
-36.814,-71.411,12.589
-36.987,-71.485,17.579
-37.017,-71.491,15.806
-37.034,-71.479,5.369
-37.056,-71.494,10.406
-37.049,-71.484,7.084
-37.083,-71.512,14.593
-37.106,-71.526,18.638
-37.110,-71.515,11.694
-37.116,-71.508,8.347
-37.274,-71.577,13.234
-37.264,-71.565,9.606
-37.499,-71.667,16.975
-37.465,-71.633,6.388
-37.568,-71.685,15.255
-37.553,-71.670,11.033
-37.575,-71.679,12.422
-37.562,-71.667,7.677
-37.608,-71.699,14.019
-37.660,-71.723,18.036
-37.718,-71.742,16.209
-37.728,-71.728,8.956
-37.786,-71.747,5.642
-37.820,-71.764,10.221
-38.490,-72.009,13.942
-38.580,-72.028,7.546
-38.659,-72.054,8.829
-38.816,-72.125,15.025
-38.790,-72.108,11.854
-38.834,-72.130,13.197
-38.811,-72.114,10.235
-38.921,-72.170,17.527
-38.937,-72.171,16.048
-40.811,-39.910,18.154
-37.019,-37.737,19.279
-33.103,-36.075,10.172
-14.807,-29.603,5.068
-14.543,-29.795,18.781
-14.600,-29.620,14.509
-14.627,-29.574,10.824
-14.633,-29.558,7.759
-14.616,-29.577,6.924
-4.138,-39.159,15.891
-4.703,-39.127,19.588
-4.113,-39.294,8.647
-4.444,-39.297,11.738
-4.629,-39.327,20.769
-4.319,-39.460,18.968
-4.607,-39.442,12.518
-4.200,-39.790,15.341
-4.179,-39.793,10.662
-4.175,-39.795,7.982
-4.169,-39.800,6.969
-4.336,-39.832,18.127
-4.319,-39.831,14.515
-4.471,-39.780,19.989
-4.304,-39.838,9.828
-4.302,-39.846,6.157
-4.382,-39.832,13.643
-4.416,-39.856,21.805
-4.450,-39.868,22.756
-4.427,-39.866,17.296
-4.454,-39.876,16.415
-4.495,-39.905,9.011
-4.506,-39.917,5.375
-4.645,-39.956,11.309
-5.012,-40.084,14.850
-5.032,-40.088,17.808
-5.031,-40.088,14.035
-5.065,-40.093,22.219
-5.136,-40.122,20.367
-5.129,-40.123,16.923
-5.100,-40.122,9.503
-5.139,-40.140,5.877
-5.342,-40.202,18.571
-5.372,-40.216,11.010
-5.520,-40.257,21.503
-5.502,-40.264,8.748
-5.498,-40.265,7.782
-5.542,-40.271,19.681
-5.542,-40.272,16.210
-5.557,-40.281,12.641
-5.611,-40.299,13.457
-5.627,-40.304,15.367
-5.617,-40.308,5.248
-5.674,-40.313,22.695
-5.641,-40.311,11.763
-5.647,-40.315,10.163
-5.643,-40.319,6.923
-5.693,-40.329,14.424
-5.716,-40.336,17.474
-5.835,-40.373,20.774
-5.851,-40.392,6.149
-5.979,-40.429,19.000
-5.985,-40.438,9.411
-6.093,-40.472,18.197
-6.105,-40.475,16.759
-6.153,-40.485,22.029
-6.142,-40.490,11.164
-6.224,-40.513,20.088
-6.266,-40.531,15.882
-6.277,-40.541,13.006
-6.291,-40.546,13.872
-6.388,-40.581,5.555
-6.498,-40.612,21.304
-6.493,-40.614,17.455
-6.498,-40.618,8.790
-6.575,-40.646,9.912
-6.816,-40.731,16.445
-6.883,-40.754,14.370
-6.897,-40.755,20.506
-6.924,-40.771,13.417
-14.802,-63.626,13.020
-19.312,-64.098,14.931
-22.172,-66.231,17.178
-22.238,-66.259,13.564
-22.549,-66.380,20.975
-22.844,-66.479,13.027
-22.991,-66.520,16.765
-25.326,-66.865,15.168
-32.675,-69.970,21.006
-40.799,-39.902,11.489
-40.823,-39.860,17.308
-40.020,-39.297,5.180
-37.993,-37.667,11.177
-37.654,-37.655,11.986
-37.586,-37.637,8.164
-37.527,-37.373,7.211
-37.521,-37.313,6.412
-37.378,-37.393,15.221
-37.411,-37.259,14.355
-37.207,-37.384,11.327
-37.205,-37.388,10.155
-37.096,-37.461,18.158
-34.363,-36.494,8.088
-34.395,-36.822,5.076
-34.230,-36.440,5.886
-34.091,-36.284,10.179
-34.053,-36.259,7.331
-33.818,-36.307,8.669
-33.644,-36.114,6.605
-33.230,-36.085,5.904
-33.198,-36.067,7.290
-33.351,-36.950,8.773
-33.176,-36.118,5.078
-33.008,-36.071,8.678
-32.789,-35.930,6.573
-32.643,-35.883,7.923
-32.534,-35.853,10.693
-32.425,-35.813,5.054
-32.343,-35.772,5.920
-32.279,-35.755,7.191
-32.196,-35.723,8.610
-25.848,-33.478,6.992
-25.730,-33.436,5.947
-25.535,-33.545,5.067
-1.388,-58.885,21.006
-1.571,-58.932,12.973
-1.727,-58.980,16.899
-6.006,-60.339,13.222
-6.463,-60.677,20.713
-6.311,-60.704,17.379
-6.779,-60.769,16.690
-6.715,-60.750,13.254
-6.695,-60.747,9.301
-8.114,-61.246,13.262
-8.330,-61.314,16.926
-8.563,-61.418,21.043
-8.912,-61.532,12.957
-8.988,-61.560,9.348
-14.030,-63.349,9.475
-14.320,-63.455,20.940
-14.158,-63.814,17.489
-14.661,-63.555,16.833
-6.067,-27.977,17.445
0.342,-57.458,9.765
-1.276,-58.811,9.111
25.458,5.732,19.312
25.468,5.755,18.480
25.469,5.754,17.610
25.467,5.747,16.781
25.469,5.747,15.919
25.469,5.746,15.103
25.470,5.747,14.256
25.470,5.743,13.451
25.471,5.742,12.623
25.470,5.739,11.772
25.473,5.744,10.915
25.476,5.747,10.103
25.477,5.748,9.275
25.476,5.744,8.434
25.476,5.743,7.563
25.478,5.745,6.713
25.479,5.744,5.900
25.478,5.741,5.055
25.702,5.092,18.075
25.702,5.089,17.173
25.704,5.091,16.372
25.704,5.089,15.526
25.706,5.090,14.653
25.709,5.090,12.180
25.709,5.089,11.361
25.713,5.093,9.688
25.713,5.090,8.835
25.713,5.088,8.029
25.715,5.087,5.509
25.721,5.046,18.984
25.722,5.034,13.781
25.729,5.040,10.554
25.732,5.038,7.194
25.731,5.033,6.375
26.479,2.968,9.981
26.491,2.947,5.743
26.500,2.892,16.857
26.502,2.892,15.241
26.504,2.893,14.369
26.505,2.892,13.300
26.507,2.891,11.278
26.510,2.889,7.723
26.512,2.889,6.773
26.513,2.872,12.498
26.516,2.870,9.188
26.523,2.808,18.494
26.552,2.756,16.053
26.606,2.578,19.276
26.650,2.504,8.426
26.675,2.431,10.603
26.690,2.353,17.472
26.703,2.361,11.847
26.723,2.324,6.235
26.713,2.293,13.840
26.729,2.303,5.286
26.743,2.246,9.723
26.745,2.244,7.252
26.750,2.212,14.861
26.753,2.212,12.926
26.768,2.158,16.578
26.790,2.057,18.289
28.670,-3.033,10.290
28.671,-3.043,15.966
28.702,-3.126,13.536
28.710,-3.126,5.412
28.726,-3.194,18.302
28.765,-3.288,14.759
28.775,-3.312,12.403
28.782,-3.324,7.594
28.784,-3.335,11.443
28.782,-3.337,9.531
28.821,-3.449,16.895
28.840,-3.486,8.457
28.882,-3.602,6.842
28.899,-3.649,6.026
28.896,-3.656,19.011
28.904,-3.668,15.518
28.929,-3.727,10.652
28.927,-3.738,17.747
28.931,-3.738,14.075
28.940,-3.761,13.103
28.959,-3.810,5.029
31.032,-3.349,7.643
31.185,-3.297,11.565
31.169,-3.305,8.755
31.153,-3.312,5.646
31.130,-3.337,15.980
31.247,-3.286,12.801
31.349,-3.273,17.192
31.499,-3.211,6.974
31.495,-3.245,15.207
31.508,-3.258,10.774
31.506,-3.274,14.405
31.157,-3.438,19.274
31.518,-3.302,13.579
31.568,-3.416,9.958
31.578,-3.475,17.944
31.635,-3.587,6.236
31.643,-3.600,5.033
31.642,-3.617,8.169
31.646,-3.631,12.136
31.653,-3.675,16.537
31.758,-3.686,9.186
31.695,-3.790,18.779
31.833,-3.887,7.255
31.757,-3.946,14.048
31.764,-3.976,17.293
31.774,-3.973,10.535
32.181,-5.081,6.482
32.631,-5.100,7.789
32.231,-5.214,9.345
32.360,-5.216,12.076
32.236,-5.278,19.262
32.262,-5.303,14.725
32.346,-5.299,16.178
32.512,-5.358,16.983
32.301,-5.420,10.930
32.329,-5.491,5.767
32.676,-5.436,13.163
32.349,-5.556,18.421
32.477,-5.542,8.653
32.364,-5.582,7.141
32.375,-5.615,13.972
32.407,-5.704,10.096
32.543,-5.728,15.458
32.885,-5.693,11.647
32.442,-5.812,17.668
32.465,-5.882,7.886
32.485,-5.927,12.513
32.503,-5.967,6.398
32.514,-5.998,9.319
32.521,-6.031,19.203
32.533,-6.059,16.547
32.545,-6.088,14.690
32.580,-6.172,10.771
32.591,-6.203,13.409
32.588,-6.199,5.464
32.627,-6.311,18.335
32.636,-6.321,8.551
32.637,-6.336,7.190
32.686,-6.459,11.925
32.683,-6.458,10.014
32.685,-6.478,17.288
32.692,-6.492,15.794
32.737,-6.614,14.103
32.765,-6.674,12.735
32.777,-6.715,6.168
32.792,-6.747,9.231
32.790,-6.747,7.891
32.795,-6.769,19.043
32.798,-6.782,15.055
32.811,-6.812,16.526
32.821,-6.824,11.187
32.864,-6.956,5.346
32.875,-6.980,17.881
33.011,-7.351,17.166
33.030,-7.398,18.585
33.029,-7.392,9.672
33.055,-7.471,7.668
33.052,-7.469,6.188
33.901,-7.493,23.637
33.856,-7.512,22.192
33.854,-7.511,20.759
33.784,-7.535,25.059
33.096,-7.570,11.403
33.114,-7.619,12.836
33.481,-7.647,24.316
33.482,-7.646,22.942
33.492,-7.644,20.057
33.444,-7.663,21.483
33.171,-7.701,15.125
33.171,-7.752,17.858
33.143,-7.770,19.332
33.158,-7.767,16.471
33.085,-7.791,23.626
33.089,-7.789,22.224
33.089,-7.788,20.751
33.035,-7.809,24.992
31.977,-8.196,15.158
31.901,-8.222,11.997
31.826,-8.247,24.069
31.880,-8.233,8.274
31.988,-8.280,9.393
31.994,-8.276,5.628
31.657,-8.314,18.824
31.860,-8.315,17.111
31.755,-8.363,23.213
31.756,-8.362,22.396
31.756,-8.361,21.482
31.755,-8.360,20.306
31.761,-8.358,17.968
31.774,-8.355,14.129
31.554,-8.347,11.276
31.483,-8.373,25.079
31.507,-8.365,15.827
31.753,-8.368,13.320
31.747,-8.365,10.485
31.767,-8.361,6.978
31.351,-8.422,19.561
31.350,-8.424,7.701
31.149,-8.494,15.085
31.140,-8.504,11.967
31.057,-8.527,24.359
31.327,-8.551,9.778
31.231,-8.557,6.376
30.879,-8.586,23.367
30.879,-8.585,22.497
30.880,-8.585,21.678
30.885,-8.584,20.846
30.901,-8.583,18.857
30.876,-8.594,18.021
30.888,-8.590,13.867
30.850,-8.605,17.181
30.855,-8.604,16.301
30.871,-8.601,13.064
30.870,-8.599,10.920
30.869,-8.592,5.473
30.847,-8.609,9.139
30.851,-8.608,8.328
30.837,-8.606,7.077
30.725,-8.646,25.092
30.742,-8.642,20.032
30.586,-8.699,10.133
30.515,-8.726,15.576
30.488,-8.737,14.662
30.466,-8.746,12.368
30.466,-8.738,6.184
30.361,-8.777,24.031
30.369,-8.777,11.530
30.286,-8.805,19.391
30.297,-8.805,7.723
30.219,-8.829,22.927
30.216,-8.827,21.214
30.233,-8.825,18.439
30.162,-8.849,22.074
30.176,-8.845,17.596
30.184,-8.845,16.712
30.188,-8.842,13.546
30.184,-8.848,8.711
30.177,-8.843,5.147
30.075,-8.878,20.417
30.085,-8.880,10.742
30.018,-8.903,24.744
30.064,-8.889,9.535
30.064,-8.886,6.913
28.904,-9.301,17.627
28.879,-9.314,22.148
28.918,-9.297,5.655
28.766,-9.351,21.284
28.770,-9.348,18.466
28.759,-9.351,13.135
28.816,-9.375,16.613
28.760,-9.357,10.210
28.652,-9.390,13.946
28.600,-9.415,7.004
28.530,-9.434,20.478
28.531,-9.433,19.580
28.539,-9.429,15.863
28.535,-9.434,12.347
28.535,-9.433,11.447
28.527,-9.439,9.285
28.529,-9.438,8.224
28.441,-9.465,15.034
28.332,-9.501,22.812
28.336,-9.509,6.219
28.236,-9.540,17.224
28.149,-9.573,21.868
28.110,-9.582,18.905
28.130,-9.584,10.738
28.081,-9.596,18.027
28.019,-9.618,13.451
28.033,-9.615,9.904
28.052,-9.611,5.423
28.001,-9.627,14.348
28.026,-9.620,7.608
27.964,-9.640,21.044
27.954,-9.640,16.415
27.934,-9.654,8.715
27.782,-9.709,6.832
27.814,-9.781,15.629
27.607,-9.766,22.481
27.798,-9.792,12.486
27.803,-9.792,11.619
27.550,-9.793,6.046
27.492,-9.809,17.520
27.418,-9.837,21.674
27.385,-9.843,18.444
27.426,-9.837,9.367
27.410,-9.845,10.504
27.363,-9.858,13.859
27.190,-9.920,20.875
27.130,-9.939,14.634
27.246,-9.988,19.630
27.086,-9.959,7.189
27.018,-9.988,13.119
26.918,-10.022,16.972
26.882,-10.032,22.794
26.898,-10.030,5.559
26.865,-10.038,9.907
26.796,-10.061,17.861
26.820,-10.054,6.395
26.740,-10.085,10.937
26.676,-10.104,21.976
26.611,-10.130,14.000
26.755,-10.208,7.893
26.510,-10.162,20.051
26.514,-10.161,19.108
26.503,-10.168,15.631
26.462,-10.183,21.166
26.503,-10.172,9.201
26.459,-10.182,12.533
26.350,-10.222,16.425
26.359,-10.221,14.817
26.355,-10.222,11.674
26.326,-10.236,7.188
26.202,-10.273,17.327
26.191,-10.281,18.379
26.195,-10.279,13.319
26.145,-10.298,22.615
26.187,-10.286,10.323
26.205,-10.283,5.895
26.174,-10.294,8.449
26.029,-10.350,5.112
25.930,-10.376,21.743
25.888,-10.389,20.555
25.870,-10.396,19.538
25.847,-10.407,14.179
25.836,-10.412,11.040
25.835,-10.416,9.606
25.809,-10.422,6.602
25.767,-10.437,15.862
25.746,-10.443,12.205
25.769,-10.441,7.758
25.625,-10.484,16.784
25.581,-10.499,17.839
25.594,-10.498,15.046
25.488,-10.535,18.811
25.497,-10.531,12.998
25.492,-10.542,8.861
25.385,-10.569,22.715
25.455,-10.556,5.689
25.424,-10.562,10.307
25.335,-10.590,21.238
25.266,-10.615,20.062
25.222,-10.638,11.585
25.230,-10.637,7.166
25.183,-10.647,13.757
25.061,-10.692,16.161
25.095,-10.686,8.160
25.021,-10.703,21.993
25.071,-10.693,9.545
25.001,-10.710,17.257
25.024,-10.713,6.356
24.971,-10.725,14.564
24.963,-10.729,12.390
24.919,-10.741,19.335
24.881,-10.756,18.274
24.892,-10.753,15.373
24.855,-10.772,10.886
24.778,-10.789,20.685
24.783,-10.804,5.259
24.695,-10.831,8.842
24.668,-10.836,13.127
24.611,-10.848,22.753
24.539,-10.888,7.485
24.504,-10.899,10.146
24.461,-10.909,16.681
24.434,-10.916,21.439
24.460,-10.914,11.698
24.442,-10.918,13.968
24.380,-10.937,19.964
24.338,-10.954,17.712
24.311,-10.963,18.817
24.301,-10.968,15.868
24.340,-10.959,5.994
24.285,-10.976,14.899
8.342,-42.701,9.115
7.705,-40.822,20.999
7.514,-40.367,9.136
7.443,-40.094,20.749
7.602,-37.950,14.322
5.766,-35.357,20.712
5.501,-34.625,21.020
3.794,-26.492,11.686
3.794,-26.492,10.855
3.792,-26.496,10.048
2.720,-24.880,8.626
2.999,-24.446,11.729
2.997,-24.454,6.075
2.980,-24.416,17.667
2.984,-24.417,12.794
2.981,-24.422,10.877
2.971,-24.433,10.057
2.867,-24.089,8.637
2.016,-24.774,20.935
2.752,-23.834,12.278
2.692,-23.806,13.262
2.746,-23.715,15.204
2.739,-23.726,11.457
2.747,-23.721,7.643
2.752,-23.717,6.737
2.331,-23.975,5.771
2.580,-23.329,8.682
2.516,-23.186,12.783
2.495,-23.098,5.052
2.486,-22.990,7.440
2.466,-22.961,17.156
2.083,-23.215,6.218
2.318,-22.568,8.694
2.258,-22.241,12.696
2.260,-22.244,6.203
1.503,-22.714,19.423
1.354,-22.833,15.849
1.699,-22.567,12.191
2.002,-22.335,5.084
1.105,-22.952,13.580
1.276,-22.780,14.834
1.269,-22.789,10.803
1.454,-22.571,8.602
1.288,-22.662,7.635
1.243,-22.657,9.874
1.287,-22.625,5.561
1.260,-22.602,16.693
1.257,-22.607,12.866
1.228,-22.558,6.842
1.200,-22.539,11.566
1.193,-22.460,20.914
1.159,-22.378,18.778
1.148,-22.351,14.148
1.081,-22.218,9.218
1.044,-22.096,10.467
1.060,-22.086,6.183
1.046,-22.057,12.194
1.056,-22.052,8.132
0.968,-21.851,16.713
0.817,-21.927,7.118
0.921,-21.696,21.021
0.869,-21.556,5.570
0.766,-21.590,11.603
0.833,-21.507,9.608
0.647,-21.420,6.517
0.701,-21.093,16.824
0.418,-21.286,7.398
0.673,-21.014,12.871
0.655,-20.954,20.833
0.629,-20.873,5.921
0.597,-20.826,11.895
0.583,-20.803,9.283
0.392,-20.719,6.811
0.379,-20.485,10.221
0.450,-20.407,11.211
0.392,-20.197,21.035
0.394,-20.202,5.502
0.368,-20.114,7.413
0.345,-20.063,6.299
0.317,-20.045,9.545
0.232,-19.794,10.744
0.216,-19.668,8.552
0.905,-19.206,5.088
0.150,-19.504,6.921
0.133,-19.477,20.736
0.138,-19.479,5.734
0.096,-19.403,10.000
0.114,-19.394,7.745
0.016,-19.186,9.194
0.101,-19.043,5.015
-0.084,-18.883,16.689
-0.097,-18.795,8.291
-0.304,-18.871,7.270
-0.126,-18.741,20.937
-0.191,-18.552,5.749
-0.212,-18.529,9.621
-0.332,-18.525,10.647
-0.412,-18.372,6.621
-0.620,-18.342,17.978
-0.570,-18.319,7.813
-0.628,-18.315,11.420
-0.352,-18.113,16.826
-0.328,-18.071,8.601
-0.796,-18.165,10.100
-0.112,-15.705,8.690
-0.120,-15.593,7.060
-0.121,-15.593,6.251
-0.143,-15.574,12.780
-0.138,-15.572,11.255
-2.796,-13.933,10.945
-2.705,-13.909,8.149
-2.685,-13.903,7.349
-2.631,-13.889,6.301
-2.478,-13.823,13.261
-2.426,-13.809,10.181
-2.380,-13.797,9.325
-2.221,-13.755,5.580
-2.127,-13.704,12.537
-2.101,-13.698,11.698
-2.023,-13.676,8.592
-2.012,-13.673,7.738
-3.225,-9.925,20.986
-3.243,-9.914,7.338
-3.298,-9.771,6.419
-3.317,-9.687,8.484
-3.393,-9.511,5.402
-3.398,-9.485,9.818
-3.478,-9.247,7.833
-3.502,-9.187,6.987
-3.508,-9.141,20.931
-3.551,-9.068,6.069
-3.592,-8.953,9.229
-3.891,-8.911,17.193
-3.677,-8.685,8.471
-3.828,-8.597,7.419
-3.774,-8.444,5.618
-3.909,-8.417,6.622
-3.784,-8.372,20.892
-3.932,-8.331,9.970
-3.819,-8.307,16.669
-4.306,-7.961,7.246
-4.260,-7.805,6.238
-4.045,-7.682,5.468
-4.056,-7.610,20.977
-4.198,-7.222,7.583
-4.225,-7.159,6.725
-4.275,-7.032,5.889
-3.545,-5.900,18.167
-3.748,-5.376,5.077
-3.828,-5.173,14.985
-3.825,-5.160,6.909
-3.829,-5.158,6.062
-3.806,-5.151,18.585
-4.025,-4.613,5.074
-4.120,-4.523,14.211
-4.107,-4.449,6.664
-6.497,-1.871,10.600
-6.093,-1.900,13.070
-6.458,-1.799,6.510
-6.165,-1.691,21.011
-6.244,-1.490,16.748
-6.420,-0.966,20.690
-6.675,-0.247,21.033
-7.715,2.696,20.698
-7.801,2.936,19.010
-7.811,2.960,11.779
-7.842,2.997,16.780
-7.828,2.995,15.355
-7.173,2.744,12.226
-8.212,4.065,15.085
-8.832,4.974,17.979
-8.480,4.851,20.937
-8.287,7.173,8.624
-9.473,8.111,18.870
-8.646,7.703,19.377
-9.398,8.121,18.062
-8.415,7.766,18.610
-8.413,7.782,14.082
-8.415,7.786,13.120
-8.422,7.794,11.947
-9.829,8.645,20.828
-9.191,8.921,19.410
-9.228,8.956,15.803
-10.412,10.060,13.632
-10.384,10.079,17.176
-10.345,10.094,20.721
-10.373,10.153,9.741
-10.370,10.161,7.120
-10.383,10.176,5.482
-10.384,10.216,8.524
-10.387,10.279,19.382
-10.438,10.344,10.608
-10.473,10.451,14.670
-10.483,10.463,12.924
-10.496,10.498,6.261
-10.511,10.561,18.600
-10.396,10.502,15.820
-10.528,10.599,11.413
-10.532,10.617,7.765
-10.552,10.644,16.624
-10.569,10.703,17.757
-10.581,10.744,9.166
-10.598,10.789,13.955
-10.605,10.851,12.180
-10.631,10.876,9.969
-10.620,10.878,20.869
-10.653,10.953,6.988
-10.664,10.966,5.600
-11.357,12.214,6.928
-11.728,12.498,10.155
-11.141,12.155,15.202
-11.064,12.118,12.052
-11.249,12.255,7.881
-11.013,12.111,19.398
-11.093,12.174,16.793
-11.604,12.515,14.469
-11.128,12.284,9.626
-11.515,12.575,13.644
-11.143,12.359,20.744
-11.524,12.669,6.283
-11.188,12.453,5.492
-11.340,12.613,18.803
-11.588,12.841,17.279
-11.433,12.762,11.607
-11.250,12.680,15.808
-11.279,12.711,12.856
-11.231,12.697,8.622
-11.447,12.890,10.811
-11.414,12.883,7.406
-11.375,12.984,18.042
-11.918,14.579,20.691
-11.718,14.648,14.327
-11.646,14.640,17.849
-11.586,14.650,19.086
-11.367,14.919,17.115
-11.348,14.914,15.387
-11.072,14.786,12.211
-11.040,14.775,9.393
-11.054,14.795,7.384
-11.027,14.779,6.534
-11.091,14.831,5.517
-11.058,14.827,13.722
-11.070,14.847,11.378
-11.090,14.865,10.551
-11.103,14.886,8.408
-11.007,14.848,14.644
-11.022,14.901,18.509
-16.663,24.090,9.021
-16.523,24.139,7.082
-16.450,24.168,5.177
-16.384,24.187,6.272
-16.336,24.207,9.801
-16.260,24.231,7.861
-15.945,24.343,10.699
-15.935,24.345,8.758
-15.856,24.372,5.685
-15.800,24.395,6.838
-15.616,24.459,9.533
-15.558,24.479,11.472
-15.541,24.485,7.611
-15.566,24.922,6.256
-15.600,25.022,8.490
-15.645,25.154,7.150
-15.653,25.171,5.494
-15.828,25.663,6.546
17.004,34.516,9.478
17.018,34.517,7.334
17.026,34.522,5.981
17.013,34.495,16.933
17.031,34.505,14.045
17.042,34.512,12.244
17.053,34.522,10.373
17.064,34.531,8.650
17.594,32.883,16.780
17.599,32.886,15.949
17.604,32.886,15.129
17.611,32.860,14.310
17.615,32.892,13.467
17.620,32.896,12.624
17.625,32.898,11.790
17.630,32.897,10.965
17.635,32.901,10.150
17.641,32.901,9.342
17.646,32.907,8.437
17.651,32.910,7.592
17.664,32.797,6.680
17.882,32.106,10.518
17.888,32.134,9.410
17.722,34.849,19.279
17.890,32.108,16.969
17.913,32.011,14.326
17.919,32.027,13.213
17.948,32.081,15.842
17.973,32.071,12.126
17.997,32.079,8.296
17.851,34.495,18.537
18.149,33.669,18.527
18.325,33.185,19.232
18.390,33.003,18.151
20.040,27.818,9.999
20.142,25.774,15.233
20.154,25.763,13.425
20.159,25.758,12.596
20.164,25.760,11.784
20.170,25.763,10.937
20.175,25.765,10.104
20.180,25.767,9.282
20.186,25.771,8.471
20.191,25.773,7.670
20.196,25.758,6.830
20.202,25.776,6.007
20.171,25.702,16.969
20.177,25.751,16.151
20.188,25.658,14.370
20.293,27.722,19.242
20.416,25.078,10.560
20.425,27.373,18.533
20.535,25.071,11.572
20.590,26.908,19.241
20.720,26.550,18.528
20.878,26.114,19.237
21.044,24.034,11.230
21.314,24.140,7.346
21.337,24.143,10.067
21.347,24.819,18.590
21.353,24.147,13.744
21.401,24.168,12.574
21.431,24.188,8.169
21.427,24.594,17.440
21.463,24.188,15.727
21.469,24.189,14.784
21.506,24.195,9.165
21.524,24.218,6.527
21.489,24.414,19.284
21.536,24.212,16.709
21.541,21.937,12.651
21.548,21.929,11.594
21.553,21.927,10.735
21.558,21.921,9.891
21.564,21.919,9.064
21.569,21.922,8.251
21.575,21.924,7.451
21.581,21.929,6.583
21.586,21.921,5.724
21.637,24.014,18.604
21.547,21.881,17.002
21.554,21.897,16.170
21.559,21.901,15.304
21.564,21.890,14.496
21.570,21.908,13.675
21.822,21.203,9.475
21.838,21.176,6.782
21.823,21.132,14.387
21.835,21.204,13.206
21.878,21.083,5.655
21.838,21.061,17.012
21.881,21.264,12.225
21.918,21.165,11.369
21.970,21.095,8.400
21.955,21.067,16.141
21.962,21.082,15.294
22.102,20.428,9.444
22.118,20.410,6.773
22.100,20.357,14.396
22.155,20.314,5.670
22.115,20.293,16.988
22.184,20.177,10.595
22.196,20.167,8.687
22.180,20.123,16.116
22.185,20.118,15.271
22.234,20.117,7.864
22.750,20.975,5.160
22.738,20.949,17.786
22.731,20.294,9.974
22.756,20.303,6.274
22.740,20.296,13.899
22.570,13.825,5.414
22.574,13.801,8.462
22.579,13.791,7.575
22.753,13.311,6.113
22.934,13.496,6.899
23.261,11.876,6.140
23.453,11.346,5.535
23.454,11.339,8.701
23.459,11.332,7.872
23.462,11.321,7.066
23.550,11.074,6.284
24.334,8.908,6.149
24.456,8.563,8.190
24.461,8.558,7.339
24.466,8.536,9.006
24.571,8.258,5.700
24.581,8.234,6.521
24.597,8.179,18.104
24.628,8.097,13.440
24.650,8.003,19.292
20.133,27.937,16.013
20.108,27.930,12.623
20.146,27.938,14.336
20.140,27.937,13.446
20.151,27.946,10.886
20.138,27.945,9.045
20.149,27.952,6.888
20.213,27.967,11.803
20.266,27.982,15.220
20.463,27.540,17.551
20.466,27.591,6.226
20.506,27.438,16.520
20.492,27.500,8.464
20.527,27.424,7.426
20.541,27.335,14.786
20.537,27.336,13.947
20.538,27.355,12.248
20.538,27.364,11.386
20.535,27.370,10.449
20.534,27.378,9.539
20.500,27.372,5.102
20.554,27.310,15.658
20.547,27.326,13.080
20.048,26.395,5.480
20.703,26.879,17.073
20.649,26.901,6.813
20.722,26.857,8.927
20.723,26.868,8.031
20.787,26.609,5.093
20.804,26.091,16.613
20.883,26.149,15.646
20.812,26.091,11.393
20.835,26.131,7.313
20.936,26.168,8.549
20.968,26.137,13.060
20.986,25.670,9.253
20.587,25.067,16.020
20.583,25.071,15.175
20.595,25.084,12.395
20.617,25.067,5.937
21.645,24.297,11.803
21.744,24.028,10.799
22.590,20.889,13.087
22.966,20.589,18.527
22.842,20.426,16.665
22.784,20.406,14.818
22.914,20.456,15.817
22.857,20.432,12.099
22.824,20.420,11.121
22.794,20.411,7.355
22.944,20.465,8.833
23.213,19.956,10.574
23.215,19.893,18.199
23.218,19.950,9.398
23.229,19.901,15.288
23.222,19.935,6.816
23.242,19.879,14.392
23.232,19.892,11.583
23.248,19.836,16.285
23.265,19.801,12.482
23.264,19.781,5.165
23.312,19.697,6.041
23.331,19.624,13.594
23.329,19.584,17.185
23.334,19.640,8.616
23.339,19.615,7.625
23.386,19.435,18.845
23.438,19.397,10.040
23.438,19.327,11.046
23.456,19.245,14.870
23.460,19.226,15.757
23.479,19.172,17.904
23.477,19.207,11.935
23.491,19.159,12.902
23.492,19.181,6.816
23.509,19.122,9.258
23.531,19.038,16.568
23.528,19.089,5.506
24.251,17.985,13.050
24.051,17.920,11.908
24.044,17.934,9.183
24.109,17.712,15.767
24.120,17.684,7.490
24.052,17.573,18.398
24.045,17.620,9.932
24.268,17.622,8.472
24.294,17.545,6.458
24.132,17.351,17.453
24.277,17.391,5.369
24.167,17.255,19.183
24.175,17.242,13.430
24.586,17.202,16.712
24.372,17.200,9.176
24.451,17.170,14.544
24.548,17.090,15.513
24.539,17.100,10.669
24.361,17.042,11.915
24.472,17.040,7.908
24.740,17.049,12.822
24.476,17.030,7.076
24.311,16.859,18.137
24.333,16.854,6.045
24.340,16.802,9.901
24.399,16.602,17.286
24.503,16.594,16.164
24.419,16.593,13.871
24.532,16.661,5.157
24.428,16.536,18.937
24.503,16.605,8.638
24.551,16.535,11.267
24.762,16.516,14.949
24.524,16.275,13.101
24.973,16.300,16.806
24.561,16.210,9.348
24.579,16.103,18.217
24.797,16.140,10.564
24.963,16.117,15.643
24.596,16.128,5.772
24.696,16.089,11.917
24.818,16.013,14.301
24.744,15.945,8.127
24.662,15.856,17.437
24.683,15.802,19.204
24.831,15.771,7.348
24.868,15.648,16.288
24.849,15.674,11.249
24.758,15.623,13.582
24.764,15.628,9.926
24.874,15.655,6.542
24.883,15.664,5.157
24.867,15.593,14.991
24.346,15.401,18.598
24.143,15.333,17.781
24.311,15.392,6.025
24.073,15.324,13.277
24.152,15.335,9.468
24.209,15.251,14.630
24.206,15.269,8.457
24.237,15.264,7.048
24.039,15.187,17.001
26.473,6.924,17.412
26.481,6.915,13.554
26.693,6.796,9.230
26.536,6.899,5.919
26.868,6.641,16.735
26.718,6.565,15.949
26.787,6.166,17.411
26.764,6.191,9.749
26.657,6.094,13.549
26.396,6.098,5.946
26.269,6.082,15.474
26.266,6.073,12.808
26.253,6.084,11.982
26.272,6.063,9.122
26.266,6.072,8.109
26.271,6.073,7.306
26.273,6.059,5.114
3.779,-26.273,9.238
3.780,-26.271,8.423
3.720,-26.306,7.624
3.050,-26.454,5.861
2.983,-24.303,5.214
2.732,-23.645,9.809
2.322,-24.461,6.545
2.234,-24.381,11.442
2.490,-22.833,12.064
2.496,-22.812,11.159
2.495,-22.815,10.326
2.481,-22.874,9.518
2.224,-23.647,10.478
2.179,-23.427,13.765
2.044,-23.357,16.532
2.238,-22.128,7.741
1.995,-22.284,9.959
1.938,-22.304,10.845
0.657,-21.135,10.872
-0.117,-15.440,7.872
-0.113,-15.423,14.811
-0.775,-15.709,12.143
-0.894,-15.885,5.262
-0.906,-15.894,11.290
-0.914,-15.901,10.368
-0.907,-15.870,9.404
-0.930,-15.909,8.346
-0.929,-15.881,6.548
-3.779,-8.591,14.385
-3.802,-8.143,9.119
-3.797,-5.031,11.256
-4.036,-4.288,11.518
-4.031,-4.281,16.795
-4.940,-4.715,10.994
-4.975,-4.697,10.191
-4.985,-4.630,7.040
-4.999,-4.657,14.006
-6.007,-1.900,13.871
-6.110,-1.635,5.583
-6.363,-1.832,7.384
-6.410,-1.101,7.001
-6.368,-0.900,5.929
-7.387,2.099,7.747
-7.281,2.210,6.531
-7.399,2.137,11.067
-7.393,2.180,5.623
-7.386,2.141,16.472
-7.414,2.150,12.767
-7.224,2.399,8.491
-7.486,2.291,15.636
-7.820,2.239,18.119
-7.829,2.274,17.256
-7.830,2.345,7.117
-7.587,2.546,9.234
-7.920,2.604,6.228
-7.675,2.840,7.959
-7.699,2.845,5.291
-8.108,4.039,10.684
-8.116,4.044,14.280
-8.154,4.151,9.833
-8.162,4.197,7.227
-8.171,4.201,6.092
-8.202,4.328,8.359
-8.142,4.332,16.972
-8.341,4.665,5.430
-8.630,4.592,10.404
-8.899,4.520,6.799
-8.694,4.742,7.871
-8.637,4.944,6.125
-8.115,7.197,7.802
-8.125,7.198,7.001
-8.371,7.932,8.246
-8.385,7.933,7.436
-9.655,8.420,7.990
-9.658,8.424,7.153
-9.665,8.428,6.336
-9.670,8.431,5.536
-9.661,8.393,17.030
-9.664,8.418,12.832
-9.665,8.432,10.362
-9.671,8.439,9.055
-9.195,8.923,8.501
-9.932,8.888,11.480
-9.940,8.894,15.067
-34.941,16.626,11.550
-34.950,16.634,10.252
-34.938,16.681,12.363
-34.922,16.696,9.450
-34.944,16.729,14.337
-23.757,21.012,6.938
