32.659,105.884,1.642
30.581,105.905,2.138
32.542,105.650,19.879
30.190,105.765,1.090
60.127,116.254,3.280
60.103,116.251,2.473
60.088,116.247,1.671
60.128,116.236,13.614
60.116,116.232,12.779
60.103,116.229,11.953
60.027,116.211,7.342
60.009,116.208,6.514
60.000,116.205,5.693
60.094,116.209,21.085
60.090,116.206,20.276
60.082,116.203,19.475
60.068,116.199,18.620
60.053,116.196,17.777
59.331,115.971,3.610
59.316,115.968,2.765
59.354,115.954,13.632
59.344,115.951,12.808
59.322,115.947,11.991
59.238,115.929,7.176
59.222,115.926,6.363
59.204,115.923,5.556
59.185,115.920,4.754
59.310,115.928,20.869
59.303,115.925,20.004
59.285,115.921,19.147
59.278,115.918,18.309
57.731,115.390,5.871
57.530,115.326,2.073
57.641,115.340,21.083
57.898,115.227,3.074
58.398,114.867,5.789
58.342,114.855,1.847
58.263,114.816,21.040
58.052,114.753,1.061
60.624,114.458,4.987
57.108,114.369,3.037
57.046,114.365,1.192
57.045,114.383,22.747
57.126,114.273,5.054
57.126,114.270,4.245
55.166,113.708,5.746
55.163,113.706,20.785
55.132,113.695,16.891
52.941,113.669,5.770
52.928,113.667,4.941
52.916,113.665,4.119
52.906,113.663,3.304
52.967,113.667,20.702
52.945,113.663,19.122
52.940,113.661,18.299
52.934,113.657,17.040
52.925,113.655,16.199
52.915,113.653,15.373
52.737,113.585,19.895
52.577,113.532,14.629
52.386,113.461,17.714
52.258,113.429,4.550
52.247,113.427,3.746
52.300,113.432,21.088
52.270,113.420,16.646
52.183,113.389,19.332
52.184,113.386,18.517
51.969,113.313,20.334
51.817,113.261,14.863
51.737,113.230,17.255
51.617,113.198,3.303
51.618,113.183,14.045
51.545,113.066,18.051
51.707,112.972,4.151
51.727,112.918,1.156
51.730,112.833,18.971
51.802,112.738,2.638
51.778,112.697,19.768
51.827,112.560,20.584
51.079,112.190,20.548
49.459,111.653,1.834
49.223,111.568,22.729
46.410,111.337,3.781
46.341,111.304,19.587
45.670,111.071,3.947
45.309,110.943,3.118
45.315,110.814,11.618
45.366,110.668,15.273
45.394,110.592,16.317
45.409,110.554,17.181
45.302,110.154,9.165
45.058,110.067,15.733
44.914,110.021,16.677
44.343,109.809,16.098
43.853,109.639,1.235
43.832,109.627,15.472
43.229,109.407,14.949
42.474,109.147,24.938
40.417,108.076,19.045
40.139,108.063,16.805
40.082,108.047,15.931
39.486,108.080,19.104
39.498,108.075,15.297
39.504,108.069,1.741
39.438,108.065,20.070
39.443,108.063,17.963
39.461,108.052,3.567
39.462,108.052,2.721
39.404,108.043,16.458
38.996,107.906,20.758
37.799,108.221,17.365
36.418,107.708,4.176
32.893,105.592,16.145
32.895,105.593,15.326
32.908,105.589,3.998
30.850,105.733,13.229
30.646,105.663,14.498
30.656,105.667,11.505
30.627,105.659,12.454
30.635,105.660,10.678
30.642,105.660,9.094
30.660,105.667,4.155
30.630,105.659,5.089
30.639,105.660,3.308
30.482,105.605,6.277
30.300,105.540,9.907
30.241,105.517,13.794
29.414,105.228,12.507
29.278,105.175,8.662
22.390,102.712,11.507
14.923,100.022,5.364
14.381,99.186,21.020
12.305,98.012,3.498
8.906,97.032,19.217
8.767,97.459,19.904
6.398,96.250,5.728
-5.759,91.908,18.934
8.852,97.343,18.417
60.227,116.281,8.534
60.227,116.276,10.576
60.201,116.269,9.733
60.235,116.270,14.691
60.229,116.265,16.377
60.205,116.258,15.527
59.072,115.866,9.588
59.048,115.858,8.652
59.053,115.847,14.375
57.856,115.417,13.337
57.985,115.237,7.472
57.846,115.290,10.440
57.623,115.340,9.571
57.716,115.190,15.053
60.743,114.241,12.652
58.343,114.840,9.566
60.683,114.174,13.523
60.736,114.048,6.000
58.190,114.782,16.908
58.088,114.632,4.491
58.138,114.638,12.143
57.420,114.489,10.789
57.274,114.334,9.010
57.040,114.388,13.348
57.129,114.278,7.948
57.180,114.296,12.349
57.158,114.291,11.536
57.121,114.263,16.729
57.119,114.281,19.924
55.310,113.755,9.422
55.468,113.680,8.595
55.391,113.643,4.172
55.305,113.637,3.377
55.247,113.627,16.037
55.252,113.599,19.974
54.413,113.433,5.817
54.407,113.299,4.196
54.346,113.284,3.352
54.369,113.428,16.982
54.363,113.307,8.888
54.418,113.434,20.644
54.328,113.270,12.767
54.035,113.333,13.589
52.912,113.658,10.151
52.580,113.541,9.296
52.637,113.557,13.776
52.401,113.477,6.356
52.395,113.481,8.099
52.449,113.495,12.380
52.351,113.463,7.250
52.398,113.479,11.431
52.231,113.417,5.400
52.299,113.440,10.637
52.109,113.372,13.180
52.021,113.340,9.854
51.971,113.324,8.814
51.717,113.239,7.746
51.706,113.229,6.799
51.766,113.256,12.027
51.664,113.214,5.985
51.671,113.218,11.182
51.793,112.755,5.271
51.809,112.691,8.343
51.774,112.753,12.658
51.864,112.544,7.369
51.874,112.514,9.182
51.830,112.609,15.330
51.847,112.541,11.644
51.437,112.373,5.902
51.259,112.361,9.799
51.226,112.271,3.048
51.320,112.333,13.562
51.338,112.206,7.908
51.326,112.047,8.802
51.374,112.026,15.845
51.048,112.118,12.383
49.427,111.658,5.473
49.349,111.592,2.773
49.329,111.509,4.611
49.316,111.503,3.748
49.325,111.605,13.103
49.332,111.506,12.290
49.314,111.506,11.483
49.076,111.517,9.371
46.468,111.348,6.629
46.436,111.347,4.964
46.440,111.349,7.972
46.457,111.352,10.450
46.443,111.349,9.458
46.476,111.343,13.706
46.437,111.349,11.932
46.432,111.345,12.884
46.439,111.345,14.630
46.277,111.288,2.940
46.148,111.241,11.180
46.097,111.222,8.722
46.059,111.209,5.956
45.984,111.180,7.277
45.811,111.121,9.906
45.807,111.119,12.390
45.710,111.085,5.182
45.811,111.122,14.151
45.764,111.104,13.317
45.656,111.065,8.049
45.563,111.030,6.584
45.507,111.011,10.711
45.433,110.984,9.174
45.305,110.853,5.844
45.372,110.674,7.404
45.414,110.539,12.848
45.419,110.523,13.766
45.475,110.390,10.204
45.426,110.201,12.120
45.033,110.055,5.697
45.011,110.050,7.019
44.986,110.042,7.822
44.930,110.023,13.317
44.873,110.002,11.566
44.331,109.803,7.384
44.306,109.657,6.121
44.274,109.684,11.116
44.225,109.681,9.138
44.192,109.758,11.979
44.250,109.652,13.817
44.113,109.728,8.190
44.093,109.662,5.285
44.239,109.638,16.986
43.970,109.593,2.512
44.028,109.698,12.780
43.933,109.573,3.533
43.964,109.584,10.375
44.081,109.623,21.905
43.943,109.581,17.872
43.608,109.543,4.643
43.589,109.538,7.534
43.638,109.561,16.397
43.535,109.521,8.727
43.532,109.523,11.579
43.435,109.359,1.938
43.478,109.365,6.707
43.472,109.373,9.558
43.452,109.401,13.880
43.458,109.362,17.214
43.337,109.451,12.360
43.216,109.412,10.801
43.136,109.381,15.800
43.107,109.370,13.141
43.023,109.330,5.184
43.035,109.340,8.118
42.859,109.275,7.335
42.825,109.266,4.403
42.854,109.279,10.098
42.826,109.268,9.002
42.799,109.251,6.256
42.788,109.255,11.737
42.747,109.241,14.268
42.592,109.187,12.534
42.521,109.158,15.272
42.458,109.139,10.966
42.404,109.118,13.501
42.322,109.083,5.605
42.286,109.074,8.397
42.254,109.061,6.837
42.249,109.063,9.579
42.118,109.012,4.794
41.966,108.960,10.351
41.877,108.931,12.906
41.775,108.892,6.197
41.770,108.898,15.498
41.730,108.875,11.241
41.690,108.861,8.996
41.705,108.870,13.874
41.573,108.814,5.367
41.484,108.792,8.176
41.476,108.780,7.029
41.422,108.765,9.746
41.336,108.735,12.326
41.312,108.730,14.858
41.239,108.698,10.578
41.151,108.672,13.257
41.051,108.624,5.972
40.463,108.315,7.720
40.433,108.322,8.594
40.482,108.262,13.014
40.433,108.316,11.814
40.425,108.282,15.204
40.222,108.329,6.131
40.228,108.342,13.828
40.123,108.301,9.416
40.003,108.254,7.023
39.967,108.243,10.245
39.939,108.239,14.568
39.712,108.157,13.209
39.718,108.040,12.351
39.631,108.022,8.608
39.649,108.001,11.550
39.604,108.025,7.765
39.500,108.070,5.866
39.426,108.042,4.498
39.382,108.036,10.776
39.373,108.030,9.693
39.395,108.042,13.974
39.316,108.006,6.678
38.875,107.842,2.211
38.925,107.874,11.975
38.817,107.821,3.138
38.801,107.816,1.376
38.891,107.867,15.859
38.793,107.812,4.047
38.897,107.873,18.582
38.889,107.876,21.914
38.794,107.823,10.260
38.837,107.851,19.553
38.708,107.857,11.183
38.714,107.848,13.550
38.599,107.764,16.611
38.561,107.751,17.862
38.372,107.666,4.715
38.441,107.705,15.200
38.398,107.699,20.252
38.318,107.660,14.269
38.223,107.613,2.639
38.357,107.684,21.334
38.132,107.583,1.787
38.201,107.616,12.198
38.132,107.577,3.655
38.222,107.635,19.079
38.126,107.563,10.690
37.901,108.202,4.345
37.936,108.089,10.044
37.928,108.092,11.314
37.910,108.106,19.662
37.542,108.136,9.099
29.269,105.178,7.068
58.104,114.626,19.992
58.117,114.639,11.334
57.135,114.282,15.667
55.356,113.754,6.886
54.387,113.317,7.499
54.163,113.333,1.937
51.048,112.066,19.587
38.936,107.871,8.210
38.893,107.857,9.029
38.882,107.847,7.380
38.738,107.794,6.166
38.303,107.623,6.867
38.207,107.522,9.519
38.196,107.510,8.660
38.200,107.520,7.812
38.098,107.616,13.081
37.924,108.134,7.367
37.899,108.199,8.349
37.885,108.241,6.340
37.884,108.244,5.525
37.874,108.247,12.599
37.387,108.079,11.930
37.378,108.073,10.692
37.209,108.019,5.941
36.467,107.752,7.264
36.255,107.673,9.783
32.916,105.522,18.934
32.879,105.719,13.491
32.935,105.611,8.948
32.908,105.594,11.915
29.320,105.212,11.537
67.283,96.750,4.765
67.276,96.762,3.554
67.270,96.783,2.692
67.286,96.751,11.301
67.281,96.762,10.429
67.275,96.784,9.574
67.270,96.794,8.745
67.265,96.804,7.898
67.260,96.806,7.036
67.255,96.821,6.188
67.282,96.760,16.276
67.276,96.776,15.427
67.271,96.784,14.609
67.266,96.798,13.724
67.260,96.820,12.860
67.274,96.811,21.082
67.270,96.809,20.249
67.265,96.811,19.439
67.259,96.829,18.589
67.254,96.839,17.771
67.156,97.100,1.961
67.143,97.147,12.060
67.103,97.243,5.480
67.060,97.361,4.282
67.104,97.244,17.025
67.018,97.481,3.279
67.030,97.456,10.984
67.024,97.478,10.129
67.019,97.489,9.228
67.014,97.495,8.424
67.027,97.464,15.968
67.022,97.478,15.139
67.016,97.495,14.245
67.034,97.456,22.514
67.028,97.478,21.673
67.022,97.498,20.749
67.017,97.497,19.928
66.814,98.049,3.928
66.801,98.086,1.789
66.788,98.130,10.606
66.783,98.154,9.774
66.777,98.156,8.830
66.772,98.162,7.980
66.767,98.170,7.149
66.743,98.248,3.096
66.786,98.127,15.591
66.781,98.144,14.691
66.775,98.159,13.822
66.794,98.130,22.096
66.788,98.152,21.269
66.782,98.161,20.317
66.772,98.178,18.720
66.704,98.367,13.027
66.659,98.483,5.484
66.712,98.346,19.509
66.666,98.469,12.202
66.621,98.581,4.655
66.607,98.624,2.350
66.601,98.645,1.198
66.629,98.570,11.366
66.600,98.632,6.516
66.639,98.545,18.014
66.552,98.781,3.729
66.603,98.642,17.206
66.598,98.651,16.352
66.607,98.648,22.768
66.530,98.844,10.284
66.525,98.864,9.476
66.520,98.867,8.558
66.515,98.869,7.666
66.563,98.774,20.796
66.529,98.846,15.304
66.524,98.858,14.426
66.537,98.848,21.800
66.424,99.137,2.982
66.417,99.162,1.785
66.451,99.068,12.722
66.410,99.183,5.943
66.467,99.018,20.023
66.377,99.270,5.126
66.387,99.236,11.916
66.382,99.252,10.996
66.358,99.308,6.999
66.342,99.363,4.327
66.365,99.309,18.318
66.356,99.330,16.851
66.351,99.337,16.017
66.361,99.330,22.427
66.285,99.527,9.905
66.280,99.542,9.055
66.275,99.550,8.164
66.234,99.667,1.192
66.325,99.437,21.276
66.286,99.521,14.909
66.219,99.706,3.580
66.213,99.722,2.457
66.251,99.616,14.038
66.254,99.614,19.529
66.242,99.645,17.592
66.216,99.729,13.227
66.176,99.820,6.395
66.231,99.692,20.472
66.142,99.923,5.549
66.153,99.897,12.371
66.148,99.905,11.528
66.124,99.964,7.464
66.113,99.994,10.668
66.133,99.953,18.759
66.113,99.997,15.561
66.124,99.993,22.034
65.921,100.526,6.892
65.916,100.548,6.078
65.896,100.609,12.085
65.891,100.615,11.264
65.885,100.637,10.249
65.872,100.673,7.945
65.857,100.716,5.268
65.910,100.577,19.208
65.898,100.609,17.163
65.807,100.865,1.235
65.865,100.696,16.127
65.832,100.787,15.264
65.797,100.885,9.162
65.764,100.971,3.405
65.846,100.768,22.094
65.838,100.794,20.701
65.743,101.034,4.500
65.773,100.949,14.341
65.706,101.139,2.616
65.771,100.958,18.500
65.742,101.041,13.466
65.680,101.194,7.344
65.676,101.214,6.537
65.728,101.085,19.922
65.685,101.198,12.658
65.653,101.281,11.707
65.648,101.284,10.840
65.643,101.302,9.859
65.635,101.333,8.518
65.620,101.383,5.730
65.598,101.446,1.853
65.693,101.188,22.766
65.685,101.217,21.439
65.663,101.258,17.690
65.657,101.274,16.784
65.621,101.374,19.169
65.602,101.423,15.895
65.481,101.762,3.168
65.470,101.802,1.138
65.467,101.799,9.232
65.459,101.822,7.881
65.494,101.722,18.434
65.464,101.817,13.161
65.429,101.897,7.022
65.434,101.892,12.313
65.423,101.915,10.373
65.380,102.054,2.410
65.454,101.848,19.954
65.405,101.977,11.384
65.376,102.045,6.224
65.416,101.964,17.388
65.388,102.025,16.504
65.394,102.020,21.430
65.359,102.100,15.472
65.298,102.275,4.479
65.298,102.270,8.546
65.281,102.321,5.437
65.271,102.348,3.673
65.261,102.383,1.675
65.335,102.170,19.211
65.309,102.235,14.648
65.333,102.193,22.772
65.257,102.384,13.728
65.235,102.447,9.805
65.274,102.356,20.670
65.200,102.536,7.590
65.238,102.435,18.149
65.208,102.529,12.852
65.196,102.550,10.822
65.174,102.614,6.757
65.154,102.678,2.908
65.182,102.597,11.956
65.198,102.562,22.042
65.169,102.641,17.007
65.164,102.651,19.922
65.142,102.709,16.090
65.087,102.863,6.001
65.082,102.877,9.088
65.060,102.939,4.927
65.045,102.986,2.154
65.040,102.997,1.179
65.095,102.836,15.206
65.037,102.999,8.280
65.090,102.861,21.294
65.076,102.884,18.953
65.051,102.956,14.367
65.056,102.961,22.779
64.992,103.125,11.361
64.986,103.144,10.263
64.948,103.242,7.273
64.928,103.307,3.351
64.957,103.228,12.543
64.982,103.165,20.561
64.919,103.332,16.649
64.863,103.481,6.514
64.859,103.504,5.570
64.928,103.310,21.940
64.818,103.619,1.670
64.896,103.393,19.771
64.873,103.453,15.789
64.840,103.555,9.539
64.803,103.657,2.617
64.867,103.464,18.415
64.794,103.679,4.765
64.829,103.578,14.962
64.795,103.673,8.698
64.804,103.649,14.015
64.793,103.682,11.901
64.771,103.738,7.888
64.751,103.803,3.955
64.767,103.750,10.856
64.805,103.661,21.180
64.763,103.769,17.341
64.741,103.835,13.177
64.774,103.737,22.757
64.669,104.022,7.122
64.715,103.898,19.125
64.703,103.941,20.409
64.646,104.087,10.120
64.625,104.154,6.102
64.611,104.195,3.226
64.600,104.228,1.147
64.660,104.048,16.391
64.585,104.271,2.079
64.583,104.273,5.290
64.654,104.073,22.037
64.584,104.266,9.229
64.612,104.177,18.082
64.599,104.219,15.538
64.593,104.233,14.532
64.583,104.270,12.518
64.541,104.388,4.458
64.559,104.335,11.486
64.542,104.378,8.357
64.533,104.403,13.722
64.536,104.405,21.049
64.529,104.420,19.760
64.497,104.505,17.133
64.446,104.648,7.587
64.445,104.644,10.741
64.425,104.707,6.785
64.492,104.530,22.752
64.391,104.806,3.788
64.386,104.822,2.714
64.452,104.635,18.896
64.363,104.898,1.592
64.386,104.814,9.896
64.366,104.885,5.886
64.400,104.768,16.112
64.377,104.832,15.074
64.368,104.873,13.083
64.326,104.994,5.054
64.344,104.932,12.101
64.329,104.983,8.971
64.380,104.834,21.996
64.355,104.913,20.447
64.341,104.935,18.124
64.321,104.993,14.286
64.255,105.189,8.187
64.254,105.188,11.332
64.274,105.138,21.259
64.264,105.158,19.562
64.235,105.236,17.329
64.177,105.330,7.228
64.213,105.302,22.756
64.092,105.404,3.223
64.086,105.407,2.242
64.110,105.331,10.459
64.058,105.478,6.446
64.021,105.285,4.350
64.057,105.482,9.553
64.062,105.468,13.623
63.988,105.670,14.580
63.991,105.655,18.349
63.993,105.634,22.026
63.867,106.018,2.749
63.847,106.065,1.844
63.839,105.815,8.572
63.895,105.930,17.562
63.833,105.745,12.319
63.857,106.033,10.122
63.841,106.077,7.004
63.855,106.025,13.087
63.807,106.179,6.112
63.771,105.990,4.661
63.767,105.995,3.843
63.800,105.998,11.538
63.816,105.841,19.877
63.792,106.205,9.318
63.845,106.052,22.792
63.837,106.072,21.339
63.780,105.933,16.111
63.801,106.191,13.961
63.763,106.003,15.272
63.727,106.384,16.893
63.719,106.405,18.213
63.682,106.506,10.803
63.709,106.358,20.572
63.633,106.670,3.214
63.611,106.444,7.944
63.630,106.683,5.507
63.614,106.718,2.408
63.695,106.466,22.104
63.605,106.831,1.508
63.592,106.773,6.693
63.610,106.443,19.376
63.593,106.769,9.908
63.602,106.742,14.562
63.596,106.757,13.391
63.546,106.621,12.261
63.560,106.851,17.567
63.550,106.872,21.375
63.516,106.967,22.760
63.410,107.292,6.056
63.454,107.148,18.368
63.417,107.257,10.706
63.370,107.118,7.553
63.379,107.364,2.834
63.450,107.148,20.598
63.398,107.321,9.339
63.311,107.156,3.971
63.370,107.600,1.209
63.408,107.289,16.895
63.392,107.321,13.987
63.357,107.710,2.093
63.357,107.694,5.312
63.357,107.687,8.266
63.352,107.708,6.991
63.327,107.777,4.500
63.364,107.387,22.040
63.352,107.700,12.670
63.348,107.713,11.832
63.351,107.703,15.039
63.327,107.769,10.020
63.298,107.864,3.597
63.343,107.717,16.185
63.349,107.700,19.913
63.344,107.708,19.079
63.337,107.725,17.822
63.342,107.717,21.305
63.312,107.799,22.798
63.257,107.967,11.075
63.256,107.963,13.492
63.222,108.066,6.231
63.223,108.057,9.046
63.183,108.177,2.852
63.224,108.054,14.329
63.212,108.079,17.073
63.155,108.242,7.680
63.130,108.332,1.611
63.192,108.135,20.613
63.175,108.175,21.987
63.146,108.253,18.510
63.134,108.302,15.605
63.087,108.437,5.532
63.081,108.459,4.103
63.106,108.380,12.261
63.073,108.471,10.474
63.103,108.372,19.549
63.066,108.484,16.384
62.878,109.005,7.666
62.854,109.089,9.078
62.868,109.040,17.009
62.862,109.053,15.798
62.835,109.134,12.155
62.818,109.180,10.848
62.790,109.275,4.113
62.774,109.315,5.465
62.758,109.362,1.836
62.818,109.168,18.205
62.769,109.323,6.879
62.790,109.249,14.333
62.772,109.309,10.025
62.731,109.434,2.900
62.791,109.252,20.885
62.746,109.376,13.508
62.712,109.471,8.346
62.758,109.345,22.803
62.732,109.406,19.708
62.712,109.471,15.127
62.634,109.713,1.113
62.668,109.599,11.521
62.635,109.699,6.155
62.670,109.590,16.460
62.610,109.772,4.825
62.655,109.627,17.531
62.610,109.755,7.567
62.625,109.718,12.779
62.654,109.623,21.696
62.576,109.866,3.611
62.630,109.684,18.827
62.592,109.822,9.420
62.532,109.991,2.345
62.555,109.906,10.577
62.562,109.888,20.409
62.533,109.968,14.035
62.522,109.994,15.768
62.474,110.136,6.872
62.463,110.163,8.696
62.443,110.239,5.566
62.461,110.178,12.112
62.476,110.117,18.153
62.409,110.339,1.604
62.452,110.187,14.819
62.411,110.334,4.241
62.463,110.149,19.564
62.444,110.217,16.954
62.385,110.396,3.032
62.445,110.217,21.134
62.402,110.340,13.315
62.392,110.362,11.323
62.369,110.433,9.958
62.351,110.481,7.902
62.335,110.511,18.837
62.283,110.674,6.309
62.263,110.742,4.968
62.251,110.773,2.295
62.315,110.570,21.880
62.283,110.669,16.313
62.255,110.767,9.230
62.279,110.676,17.591
62.265,110.719,14.168
62.261,110.723,15.429
62.214,110.875,3.684
62.278,110.693,20.493
62.243,110.787,12.661
62.197,110.934,1.090
62.210,110.875,7.207
62.216,110.856,10.718
62.242,110.776,22.775
62.179,110.962,11.841
62.184,110.928,19.541
62.132,111.097,8.472
62.152,111.030,21.237
62.119,111.128,13.432
62.075,111.253,2.958
62.088,111.210,9.958
62.113,111.124,18.348
62.111,111.152,16.936
62.060,111.307,4.419
62.041,111.360,1.754
62.075,111.242,14.802
62.020,111.410,6.604
62.040,111.339,15.937
62.043,111.325,22.186
61.976,111.537,9.126
62.012,111.417,20.261
61.981,111.517,12.424
61.930,111.661,3.667
61.967,111.535,19.044
61.962,111.552,17.670
61.947,111.597,14.083
61.884,111.804,1.054
61.865,111.845,2.449
61.866,111.830,10.486
61.866,111.850,13.189
61.836,111.919,8.414
61.881,111.780,21.534
61.860,111.840,16.580
61.855,111.854,15.333
61.820,111.971,6.003
61.808,112.006,4.755
61.801,112.014,7.117
61.843,111.890,22.770
61.799,112.024,11.776
61.799,111.995,18.352
61.799,112.003,19.722
61.763,112.134,9.715
61.732,112.225,1.756
61.799,112.019,20.744
61.707,112.282,3.130
61.735,112.185,14.607
61.676,112.374,4.026
61.721,112.236,17.310
61.704,112.299,12.521
61.684,112.335,13.820
61.649,112.444,7.816
61.653,112.424,11.091
61.665,112.383,15.964
61.644,112.479,8.990
61.669,112.369,22.140
61.655,112.402,19.026
61.608,112.555,6.539
61.584,112.641,1.047
61.568,112.680,2.435
61.575,112.643,10.320
61.590,112.586,21.349
61.578,112.616,20.253
61.539,112.732,15.223
61.529,112.777,11.892
61.540,112.711,18.070
61.521,112.800,13.138
61.525,112.770,16.735
61.505,112.831,22.796
61.428,113.077,1.705
61.454,113.015,9.585
61.444,113.017,8.402
61.425,113.029,19.517
61.379,113.187,11.123
61.389,113.146,16.017
61.344,113.294,6.334
61.395,113.128,21.994
61.364,113.210,17.461
61.374,113.194,20.838
61.309,113.401,2.819
61.356,113.227,18.729
61.335,113.303,12.491
61.271,113.523,1.050
61.292,113.427,10.360
61.254,113.541,7.762
61.268,113.486,15.229
61.250,113.567,9.035
61.199,113.697,3.723
61.233,113.583,16.710
61.232,113.575,20.127
61.214,113.647,14.195
61.205,113.675,11.783
61.173,113.784,2.092
61.229,113.600,22.759
61.170,113.773,6.988
61.189,113.691,18.097
61.176,113.736,21.495
61.149,113.803,19.325
61.117,113.939,9.769
61.117,113.905,15.953
61.095,113.977,11.047
60.979,114.311,7.642
60.958,114.380,4.078
60.977,114.289,18.649
60.945,114.419,9.105
60.960,114.335,19.934
60.930,114.443,10.376
60.919,114.485,6.662
60.945,114.386,16.632
60.931,114.441,11.851
60.901,114.545,2.358
60.879,114.572,15.578
60.872,114.605,14.175
60.804,114.809,5.739
60.805,114.792,8.312
60.829,114.699,17.862
60.809,114.775,11.118
60.787,114.861,3.420
60.824,114.721,22.764
60.813,114.744,21.620
60.748,114.978,1.595
60.759,114.932,9.729
60.782,114.839,19.297
60.765,114.908,13.191
60.781,114.839,20.532
60.734,114.995,7.252
60.708,115.082,4.373
60.734,114.981,14.882
60.723,115.024,12.379
60.713,115.039,17.136
60.710,115.048,16.226
60.646,115.259,2.719
60.646,115.246,6.457
60.671,115.142,18.564
60.641,115.262,8.996
60.641,115.261,10.497
60.614,115.341,5.166
60.614,115.329,13.880
60.604,115.368,11.638
60.602,115.341,19.909
60.561,115.480,7.902
60.588,115.380,21.098
60.563,115.465,15.501
60.550,115.488,17.810
60.559,115.456,21.917
57.547,115.237,6.639
57.641,115.247,18.012
73.937,38.111,6.981
73.854,38.335,8.129
73.805,38.480,6.247
73.602,39.028,11.069
73.594,39.063,8.558
73.545,39.206,6.753
73.542,39.217,5.901
73.537,39.234,4.391
73.520,39.263,11.901
73.514,39.300,9.566
73.431,39.527,10.452
73.421,39.548,7.917
73.338,39.782,8.914
73.312,39.838,13.729
73.304,39.869,11.372
73.290,39.919,7.188
73.287,39.924,6.345
73.244,40.055,5.551
73.241,40.074,4.421
73.237,40.080,3.477
73.217,40.124,9.949
73.192,40.181,14.725
73.186,40.202,12.988
73.183,40.212,12.165
73.170,40.259,8.276
73.094,40.461,10.858
72.883,41.055,8.608
72.863,41.137,2.291
72.859,41.118,13.424
72.826,41.237,3.432
72.832,41.180,17.201
72.811,41.255,10.977
72.798,41.300,7.201
72.789,41.310,15.719
72.768,41.381,9.559
72.757,41.417,6.363
72.754,41.429,5.490
72.752,41.439,4.679
72.743,41.435,14.275
72.736,41.462,12.026
72.716,41.503,17.943
72.682,41.622,8.028
72.672,41.633,16.515
72.659,41.676,12.831
72.650,41.707,10.327
72.625,41.794,2.871
72.627,41.756,15.061
72.607,41.834,8.871
72.590,41.891,4.000
72.563,41.929,18.845
72.558,41.949,17.249
72.546,41.995,13.730
72.495,42.154,9.632
72.464,42.225,12.252
72.431,42.347,2.323
72.444,42.264,18.116
72.432,42.309,14.507
72.410,42.376,8.298
72.395,42.440,3.438
72.413,42.358,19.747
72.389,42.435,13.048
72.380,42.457,10.750
72.368,42.510,6.717
72.361,42.541,4.441
72.364,42.493,16.663
72.301,42.681,9.053
72.299,42.671,19.014
72.286,42.710,15.381
72.272,42.752,11.632
72.259,42.803,7.585
72.253,42.824,5.817
72.268,42.765,20.524
72.255,42.792,17.522
72.243,42.836,13.911
72.230,42.881,10.061
72.169,43.083,2.605
72.165,43.059,12.569
72.139,43.146,5.044
72.136,43.166,3.983
72.148,43.088,18.320
72.142,43.122,16.185
72.135,43.132,14.682
72.113,43.206,8.428
72.108,43.233,6.491
72.126,43.172,21.301
72.118,43.179,19.805
72.086,43.276,11.025
72.047,43.401,9.481
72.038,43.412,17.033
72.025,43.451,13.422
71.989,43.567,3.282
72.008,43.482,19.015
71.996,43.527,15.481
71.983,43.562,11.955
71.962,43.637,5.760
71.979,43.574,20.575
71.943,43.693,10.341
71.923,43.761,4.527
71.949,43.651,22.116
71.933,43.700,17.821
71.920,43.741,14.182
71.881,43.883,2.546
71.879,43.853,12.706
71.866,43.900,8.861
71.864,43.913,8.010
71.858,43.912,16.408
71.824,44.027,6.647
71.841,43.955,21.354
71.836,43.970,19.867
71.805,44.068,11.353
71.779,44.156,3.828
71.784,44.127,14.972
71.765,44.189,9.711
71.749,44.238,5.237
71.762,44.173,18.666
71.757,44.192,17.187
71.745,44.238,13.547
71.743,44.221,22.746
71.689,44.401,7.363
71.701,44.349,20.634
71.685,44.412,15.796
71.669,44.441,12.189
71.664,44.461,10.620
71.649,44.516,6.021
71.639,44.549,3.142
71.621,44.590,8.497
71.608,44.638,4.535
71.635,44.533,21.972
71.620,44.577,17.927
71.607,44.619,14.328
71.592,44.649,19.510
71.582,44.688,16.564
71.535,44.822,13.018
71.529,44.837,11.502
71.522,44.867,9.336
71.513,44.895,6.729
71.509,44.897,15.141
71.474,45.007,5.408
71.468,45.025,3.848
71.448,45.074,7.850
71.431,45.139,2.613
71.458,45.022,20.267
71.449,45.066,17.295
71.421,45.138,10.231
71.411,45.179,15.955
71.401,45.198,13.788
71.395,45.211,12.324
71.348,45.346,8.679
71.335,45.393,4.715
71.364,45.287,21.952
71.306,45.466,6.205
71.322,45.404,19.576
71.317,45.424,18.097
71.304,45.465,14.592
71.290,45.499,11.103
71.277,45.547,7.219
71.265,45.596,3.315
71.265,45.576,13.088
71.252,45.613,9.563
71.261,45.590,20.803
71.241,45.618,16.715
71.111,45.698,18.822
71.057,45.827,5.516
71.053,45.888,2.560
71.098,45.768,22.685
71.047,45.885,10.397
71.040,45.895,17.485
71.027,45.938,13.978
71.028,45.965,21.640
70.968,46.114,6.699
70.876,46.021,4.438
70.891,46.342,3.251
70.911,46.251,18.215
70.890,46.259,14.698
70.893,46.310,13.225
70.880,46.348,9.736
70.894,46.327,20.938
70.800,46.298,7.475
70.836,46.484,5.951
70.850,46.416,19.092
70.776,46.303,11.983
70.772,46.309,11.139
70.837,46.498,22.458
70.810,46.533,17.054
70.759,46.705,2.550
70.682,46.504,15.812
70.733,46.754,14.067
70.720,46.797,10.453
70.650,46.682,4.000
70.735,46.775,21.652
70.638,46.723,8.954
70.678,46.934,6.986
70.684,46.885,17.773
70.586,46.983,15.163
70.395,48.004,9.513
70.388,48.030,7.413
70.383,48.049,5.818
70.379,48.056,5.005
70.393,48.003,16.659
70.383,48.036,13.929
70.378,48.040,13.086
70.379,48.024,21.299
70.377,48.037,20.455
70.374,48.045,19.628
70.357,48.102,14.932
70.346,48.130,12.285
70.343,48.141,11.409
70.313,48.240,2.928
70.353,48.081,22.722
70.341,48.139,18.779
70.338,48.160,17.492
70.268,48.362,6.687
70.252,48.415,2.122
70.218,48.493,8.879
70.203,48.548,4.391
70.209,48.493,22.048
70.158,48.662,7.964
70.169,48.620,18.148
70.162,48.645,16.239
70.140,48.700,10.832
70.138,48.715,9.980
70.123,48.768,5.562
70.116,48.790,3.621
70.132,48.729,15.400
70.128,48.737,14.488
70.125,48.749,13.644
70.120,48.753,12.815
70.125,48.737,21.020
70.090,48.838,11.974
70.091,48.842,19.089
70.083,48.862,17.153
70.046,48.975,7.191
70.044,48.946,22.743
69.859,49.507,2.097
69.842,49.537,5.699
69.834,49.565,3.349
69.791,49.686,6.915
69.747,49.582,12.039
69.793,49.649,22.445
69.736,49.596,16.875
69.757,49.778,19.104
69.700,49.665,15.871
69.704,49.697,15.066
69.719,49.874,9.859
69.709,49.891,21.417
69.640,50.109,2.723
69.641,50.088,10.839
69.582,49.934,9.038
69.626,50.145,6.245
69.645,50.090,18.367
69.627,50.139,13.854
69.602,50.211,20.692
69.588,50.239,17.538
69.522,50.431,7.031
69.552,50.331,22.095
69.524,50.418,14.692
69.478,50.567,2.073
69.454,50.623,10.239
69.450,50.628,9.427
69.402,50.501,8.311
69.428,50.699,3.289
69.463,50.596,19.103
69.437,50.652,13.257
69.417,50.707,21.394
69.381,50.828,11.417
69.360,50.887,6.079
69.357,50.906,4.831
69.382,50.829,18.169
69.373,50.847,16.150
69.371,50.841,22.737
69.343,50.929,15.338
69.337,50.940,14.077
69.313,51.015,7.609
69.324,50.981,17.350
69.303,51.027,12.558
69.273,51.131,4.046
69.268,51.146,2.639
69.310,51.017,20.616
69.263,51.145,8.811
69.231,51.243,6.839
69.221,51.268,10.735
69.238,51.206,22.032
69.192,51.349,9.908
69.202,51.322,18.840
69.151,51.472,5.560
69.159,51.437,14.718
69.153,51.449,13.481
69.147,51.467,11.856
69.117,51.570,3.392
69.142,51.485,16.748
69.134,51.501,21.250
69.114,51.565,15.878
69.083,51.649,8.165
69.072,51.692,4.730
69.099,51.615,18.068
69.039,51.797,2.173
69.089,51.622,22.714
69.028,51.816,6.312
69.025,51.804,12.739
69.015,51.853,9.293
69.005,51.867,7.351
68.919,52.117,3.983
68.947,52.034,17.375
68.937,52.052,15.258
68.892,52.198,2.920
68.930,52.086,19.090
68.876,52.234,5.636
68.892,52.179,16.419
68.873,52.224,12.046
68.837,52.353,1.591
68.854,52.279,13.370
68.836,52.333,8.650
68.800,52.447,4.864
68.829,52.365,18.323
68.783,52.491,6.858
68.820,52.376,22.699
68.770,52.526,9.770
68.762,52.546,7.840
68.792,52.464,21.328
68.740,52.601,14.684
68.727,52.650,10.821
68.698,52.731,3.506
68.695,52.748,2.332
68.721,52.656,15.795
68.701,52.710,16.987
68.683,52.754,12.704
68.636,52.905,6.181
68.667,52.803,20.609
68.665,52.835,18.986
68.640,52.878,13.903
68.631,52.903,11.648
68.604,52.991,4.293
68.650,52.852,22.067
68.611,52.970,17.834
68.393,53.572,4.808
68.379,53.620,6.660
68.366,53.645,3.859
68.350,53.692,5.783
68.389,53.597,20.642
68.343,53.719,9.579
68.315,53.784,8.760
68.312,53.795,7.918
68.321,53.769,15.804
68.324,53.766,22.028
68.266,53.920,13.760
68.258,53.946,11.695
68.256,53.968,10.425
68.262,53.942,17.926
68.239,53.992,12.824
68.233,54.015,16.625
68.226,54.032,15.016
68.181,54.180,2.618
68.178,54.190,1.748
68.223,54.059,19.126
68.172,54.185,7.198
68.208,54.094,21.304
68.142,54.271,5.249
68.138,54.279,4.362
68.123,54.318,6.315
68.114,54.352,3.520
68.167,54.194,22.743
68.091,54.413,9.226
68.075,54.457,11.065
68.064,54.485,8.421
68.079,54.451,17.322
68.065,54.479,14.337
67.881,55.005,22.744
67.861,55.058,17.891
67.839,55.113,12.819
67.834,55.127,11.598
67.831,55.139,10.642
67.825,55.158,9.054
67.822,55.163,13.998
67.765,55.321,15.950
67.733,55.406,8.226
67.763,55.330,20.624
67.719,55.453,9.906
67.696,55.514,4.300
67.748,55.378,22.047
67.738,55.402,19.770
67.717,55.457,14.860
67.686,55.538,7.437
67.682,55.551,6.375
67.679,55.562,5.414
67.672,55.593,3.097
67.689,55.529,18.631
67.684,55.545,17.247
67.642,55.662,12.210
67.626,55.709,13.366
67.596,55.793,11.171
67.618,55.739,21.313
67.605,55.789,22.755
67.439,55.834,1.781
67.487,55.858,16.495
67.408,55.826,9.197
67.412,55.835,14.151
67.345,55.814,17.952
67.256,55.769,15.485
67.204,55.752,10.446
67.132,55.724,3.711
67.090,55.712,4.833
67.065,55.704,2.485
67.197,55.763,19.304
67.058,55.704,6.891
67.151,55.743,20.309
67.014,55.685,7.971
66.994,55.681,5.934
67.013,55.689,12.843
66.947,55.665,11.794
67.011,55.697,22.179
66.895,55.647,17.104
66.868,55.635,14.798
66.813,55.615,9.706
66.802,55.615,13.653
66.747,55.592,8.799
66.831,55.627,21.177
66.801,55.614,18.577
66.773,55.601,16.189
66.662,55.562,11.013
66.575,55.527,3.129
66.533,55.515,4.213
66.432,55.481,5.319
66.514,55.512,17.807
66.399,55.471,7.417
66.388,55.467,6.432
66.391,55.291,20.596
66.427,55.475,15.477
66.395,55.470,12.345
66.221,55.399,2.086
66.400,55.474,22.748
66.258,55.418,10.313
66.332,55.449,21.790
66.244,55.411,14.350
66.179,55.393,8.189
66.213,55.400,16.729
66.174,55.388,13.157
66.132,55.374,9.310
66.182,55.389,19.136
66.099,55.365,11.601
65.949,55.304,3.674
65.906,55.293,4.689
65.941,55.303,18.332
65.802,55.258,5.860
65.853,55.267,16.010
65.755,55.240,6.951
65.818,55.262,17.489
65.785,55.243,15.030
65.803,55.255,21.202
65.685,55.214,10.894
65.588,55.175,2.574
65.659,55.202,13.831
65.646,55.200,12.573
65.703,55.225,22.421
65.556,55.168,10.016
65.543,55.164,8.791
65.532,55.161,7.772
65.456,55.130,16.756
65.310,55.077,4.191
65.422,55.116,19.074
65.339,55.090,11.821
65.264,55.065,5.270
65.159,55.027,6.420
65.233,55.050,18.014
65.202,55.036,15.559
65.190,55.033,14.507
65.216,55.045,21.802
65.114,55.008,13.243
64.997,54.965,3.293
64.961,54.955,10.602
64.934,54.946,8.315
64.923,54.943,7.291
64.987,54.967,22.733
64.860,54.917,12.462
64.858,54.917,17.272
64.845,54.911,16.286
64.708,54.863,4.718
64.662,54.850,5.817
64.751,54.875,18.678
64.665,54.847,11.420
64.719,54.865,21.188
64.632,54.834,13.968
64.583,54.815,15.092
64.422,54.761,6.642
64.401,54.749,10.066
64.389,54.748,8.910
64.490,54.784,22.109
64.317,54.724,7.832
64.287,54.514,20.587
64.376,54.738,17.982
64.320,54.723,13.190
64.242,54.695,16.797
64.229,54.688,15.814
64.184,54.673,12.109
64.101,54.645,5.215
64.106,54.644,10.830
64.087,54.637,19.147
64.029,54.616,14.543
64.012,54.614,22.737
63.349,54.077,5.372
63.422,54.169,13.086
63.325,54.061,9.129
63.495,54.258,20.583
63.373,54.101,16.870
63.473,54.415,10.351
63.304,54.358,6.606
63.174,54.187,7.997
63.272,54.344,14.539
63.154,54.173,11.993
63.149,54.180,11.174
63.267,54.342,19.100
63.141,54.173,15.832
63.165,54.303,21.337
63.119,54.284,17.938
63.003,54.247,13.775
62.380,53.866,4.495
62.401,53.802,14.982
62.390,53.838,12.026
62.386,53.848,11.040
62.375,53.885,8.067
62.409,53.886,16.342
62.270,53.982,13.375
62.307,53.991,21.322
62.117,53.932,6.574
62.200,53.958,17.915
62.099,53.924,10.249
62.201,53.964,22.714
61.959,53.675,20.584
62.009,53.890,19.062
61.869,53.841,8.691
61.852,53.836,7.356
61.914,53.856,17.103
61.853,53.831,12.708
61.812,53.820,9.508
61.757,53.804,5.133
61.846,53.830,21.994
61.766,53.806,15.849
61.675,53.771,14.602
61.595,53.743,13.754
61.527,53.677,10.974
61.492,53.708,6.096
61.523,53.715,18.436
61.487,53.696,21.281
61.339,53.651,10.185
61.443,53.687,22.718
61.226,53.613,6.879
61.304,53.637,17.640
61.080,53.552,21.993
61.043,53.543,19.125
60.759,53.407,10.968
60.769,53.447,9.654
60.724,53.434,6.222
60.630,53.191,16.122
60.633,53.212,15.312
60.747,53.438,18.347
60.712,53.418,21.276
60.608,53.388,13.582
60.662,53.404,22.662
60.590,53.384,17.340
60.445,53.333,7.021
60.273,53.271,10.295
60.265,53.281,9.044
60.264,53.274,14.583
60.284,53.266,21.937
60.258,53.275,19.158
60.234,53.352,12.848
60.207,53.419,11.915
60.193,53.466,8.143
60.178,53.493,20.326
60.139,53.591,16.672
60.114,53.661,15.729
60.071,53.770,5.894
60.099,53.688,17.940
60.049,53.822,11.195
60.044,53.840,9.780
60.039,53.845,14.053
60.013,53.923,7.473
60.029,53.882,21.138
60.021,53.897,19.630
60.017,53.907,18.712
59.358,53.707,8.058
59.403,53.718,16.345
59.333,53.692,11.735
59.303,53.687,9.465
59.389,53.711,20.658
59.368,53.704,19.168
59.353,53.698,18.261
59.313,53.686,15.513
59.299,53.681,14.608
59.195,53.651,7.273
59.098,53.617,6.124
59.131,53.621,13.823
58.523,52.631,22.152
59.039,53.585,12.967
59.012,53.579,10.965
59.066,53.591,19.928
57.791,52.162,12.667
57.783,52.166,11.819
57.946,52.452,9.518
57.999,52.456,19.084
57.999,52.489,17.214
57.845,52.378,10.478
57.964,52.431,22.699
57.933,52.415,20.984
57.550,52.057,8.897
57.532,52.044,8.088
57.827,52.397,18.278
57.538,52.274,22.035
57.192,52.120,7.043
57.295,52.193,16.891
57.265,52.213,13.274
57.252,52.188,18.959
57.169,52.147,14.361
57.093,52.106,10.389
57.040,52.136,9.560
57.050,52.102,22.681
56.409,51.598,9.265
56.420,51.586,16.089
56.428,51.853,7.015
56.401,51.841,10.846
56.483,51.905,19.160
56.402,51.871,14.554
56.082,51.517,8.491
56.267,51.834,5.574
55.935,51.509,7.679
56.108,51.624,20.558
56.185,51.790,22.698
55.857,51.520,16.868
55.813,51.638,6.518
55.956,51.721,18.542
55.717,51.620,5.004
55.629,51.584,10.351
55.739,51.625,22.023
55.621,51.592,14.449
55.306,51.255,8.477
55.272,51.228,7.306
55.020,51.107,5.238
55.143,51.176,16.659
55.135,51.188,15.348
55.337,51.493,19.124
55.240,51.465,18.254
55.010,51.350,6.540
55.088,51.434,13.406
52.886,51.022,8.924
52.887,51.004,15.555
52.875,51.107,14.024
52.829,51.207,10.077
52.889,51.240,17.999
52.824,51.182,16.605
52.789,51.297,7.153
52.785,51.306,6.235
52.782,51.314,10.955
52.752,51.327,13.255
52.768,51.326,19.939
52.463,51.229,8.249
52.551,51.253,18.751
52.335,51.181,12.273
52.283,51.163,9.462
52.324,51.170,17.387
52.282,51.158,15.021
52.132,51.110,6.681
52.116,51.104,5.816
52.198,51.127,16.070
52.116,51.102,11.480
52.098,51.095,10.579
52.045,51.079,7.569
52.056,51.073,14.213
52.026,51.061,18.162
49.950,49.479,3.929
49.722,49.207,9.200
49.712,49.209,8.388
49.530,49.402,6.776
36.305,85.566,13.615
36.410,85.599,15.730
36.438,85.609,14.914
36.495,85.633,12.830
36.447,85.607,19.974
36.467,85.616,19.168
36.495,85.627,18.305
36.527,85.643,16.880
36.690,85.702,11.998
36.740,85.711,21.043
36.937,85.791,14.307
37.042,85.827,11.252
37.144,85.866,7.983
36.989,85.810,17.639
37.043,85.827,16.231
37.123,85.859,13.521
37.235,85.894,15.415
37.311,85.926,12.690
37.228,85.891,20.395
37.257,85.901,19.587
37.279,85.911,18.730
37.491,85.988,16.984
37.653,86.047,11.942
37.726,86.072,14.746
37.723,86.123,10.151
37.742,86.091,18.072
37.919,86.143,13.606
37.690,86.209,7.320
37.833,86.111,21.157
37.672,86.274,11.019
37.654,86.298,8.767
37.671,86.273,15.983
37.619,86.410,3.434
37.563,86.564,4.248
37.581,86.508,19.177
37.525,86.614,9.530
37.567,86.552,20.034
37.552,86.629,13.030
37.525,86.659,15.251
37.617,86.744,17.377
37.865,86.862,20.882
38.412,87.040,9.591
38.215,87.003,22.521
38.396,87.059,17.355
38.440,87.260,3.672
38.443,87.258,8.706
38.469,87.295,19.925
40.050,87.643,9.448
40.250,87.747,13.212
40.274,87.714,20.802
40.305,87.887,4.778
40.325,87.908,12.245
40.303,87.913,16.416
40.303,87.922,15.595
43.560,88.173,5.000
43.577,88.181,4.156
43.597,88.189,3.318
43.570,88.177,8.876
43.593,88.186,7.994
43.621,88.194,7.121
43.580,88.179,12.811
43.606,88.188,11.973
43.632,88.195,11.149
43.647,88.204,10.339
43.757,88.243,6.284
43.553,88.161,18.676
43.553,88.170,17.860
43.589,88.182,16.647
43.610,88.190,15.802
43.631,88.199,14.971
43.622,88.187,20.314
43.766,88.238,19.510
44.013,88.335,9.637
44.193,88.401,2.749
44.001,88.332,14.226
44.242,88.415,5.584
44.261,88.424,4.658
44.276,88.432,3.831
44.263,88.426,8.550
44.291,88.434,7.684
44.144,88.380,17.337
44.240,88.418,13.447
44.265,88.427,12.457
44.294,88.435,11.635
44.313,88.443,10.779
44.416,88.481,6.808
44.180,88.384,21.093
44.235,88.412,18.320
44.289,88.431,16.318
44.307,88.439,15.490
44.418,88.474,20.283
44.444,88.485,19.139
44.678,88.572,10.076
44.858,88.636,3.262
44.654,88.566,14.749
44.808,88.617,9.218
44.890,88.646,6.109
44.913,88.655,5.191
44.929,88.664,4.285
44.929,88.668,8.142
44.805,88.618,17.796
44.832,88.626,16.943
44.914,88.653,13.957
44.928,88.662,13.077
44.910,88.719,12.074
44.932,88.665,21.072
44.864,88.864,11.250
44.865,88.860,15.950
44.835,88.953,7.331
44.848,88.910,19.753
44.842,88.923,18.589
44.728,89.268,3.787
44.732,89.263,8.734
44.724,89.286,6.575
44.719,89.296,5.654
44.715,89.306,4.741
44.739,89.240,15.217
44.718,89.291,10.527
44.717,89.301,9.651
44.744,89.228,20.488
44.693,89.316,12.633
44.706,89.310,17.373
44.708,89.341,14.387
44.757,89.392,13.586
44.852,89.400,16.582
45.174,89.518,3.152
44.952,89.418,22.661
44.978,89.430,21.393
45.338,89.574,5.183
45.358,89.581,4.285
45.304,89.560,11.025
45.351,89.576,9.186
45.382,89.594,7.220
45.410,89.602,6.300
45.306,89.554,15.933
45.375,89.579,13.087
45.432,89.605,10.210
45.424,89.599,14.975
45.451,89.606,14.130
45.410,89.589,20.229
45.474,89.614,17.381
45.476,89.609,22.076
46.049,89.826,9.738
46.101,89.850,6.968
46.064,89.827,13.623
46.119,89.853,10.710
46.054,89.826,18.028
46.084,89.835,16.911
46.121,89.848,15.346
46.135,89.856,14.510
46.123,89.958,4.789
46.476,89.988,3.132
46.091,89.966,12.768
46.564,90.014,3.980
46.272,89.896,22.003
46.294,89.909,20.597
46.425,89.954,19.180
46.691,90.073,5.476
46.685,90.053,11.520
46.713,90.064,10.189
46.735,90.071,9.349
46.762,90.084,7.800
46.644,90.036,17.497
46.745,90.071,13.247
46.870,90.124,6.973
46.915,90.143,4.701
46.795,90.089,14.989
46.816,90.096,14.166
46.724,90.056,22.763
46.748,90.068,21.334
46.805,90.093,18.460
46.945,90.143,12.435
47.025,90.175,8.585
46.862,90.111,20.022
46.934,90.138,16.754
46.949,90.145,15.954
47.204,90.249,3.510
47.229,90.250,10.906
47.324,90.288,6.306
47.435,90.332,5.297
47.198,90.228,22.078
47.249,90.252,19.336
47.416,90.314,11.733
47.451,90.328,9.956
47.505,90.347,7.615
47.563,90.375,4.259
47.318,90.272,20.799
47.367,90.298,17.879
47.464,90.331,13.741
47.509,90.348,15.378
47.528,90.355,14.558
47.648,90.398,9.127
47.662,90.397,12.927
47.648,90.397,17.083
47.666,90.404,16.231
47.630,90.383,22.775
47.676,90.406,20.055
47.703,90.417,18.683
47.936,90.499,8.336
47.745,90.427,21.479
48.066,90.550,6.066
48.033,90.533,12.209
48.170,90.591,5.038
48.153,90.581,10.275
48.106,90.557,20.775
48.129,90.569,19.385
48.156,90.580,17.991
48.214,90.603,15.097
48.237,90.610,14.193
48.345,90.646,9.453
48.375,90.662,7.614
48.162,90.578,22.169
48.351,90.648,13.318
48.367,90.653,16.814
48.380,90.661,15.928
48.565,90.725,11.636
48.630,90.747,8.667
48.658,90.765,6.613
48.756,90.801,5.717
48.520,90.708,21.450
48.545,90.719,20.096
48.570,90.730,18.684
48.738,90.791,10.799
48.789,90.807,12.664
48.675,90.758,22.796
48.772,90.801,17.493
48.926,90.858,10.022
48.910,90.853,14.722
48.932,90.859,13.886
49.056,90.904,7.992
48.976,90.877,19.438
49.042,90.900,16.412
49.059,90.907,15.543
49.195,90.954,9.237
49.231,90.970,7.189
49.015,90.885,22.075
49.038,90.896,20.820
49.170,90.945,18.176
49.294,90.992,12.047
49.616,91.106,8.556
49.654,91.122,10.394
49.518,91.067,21.437
49.568,91.086,18.917
49.640,91.116,15.014
49.656,91.123,14.137
49.700,91.137,16.023
49.867,91.198,7.734
49.852,91.191,12.602
49.911,91.213,9.572
50.035,91.263,6.912
49.899,91.210,17.973
50.026,91.255,11.762
49.983,91.235,22.125
50.013,91.244,20.816
50.028,91.254,19.624
50.151,91.299,13.444
50.290,91.353,6.128
50.158,91.303,16.843
50.270,91.346,10.963
50.318,91.360,8.895
50.448,91.414,5.343
50.327,91.368,15.556
50.345,91.374,14.675
50.338,91.372,18.888
50.429,91.397,22.772
52.417,91.337,9.197
52.432,91.344,8.247
52.449,91.350,7.391
52.464,91.356,6.551
52.410,91.336,12.909
52.427,91.342,12.037
52.443,91.348,11.185
52.459,91.354,10.353
52.411,91.337,16.358
52.431,91.342,15.486
52.447,91.348,14.640
52.460,91.354,13.816
52.412,91.336,20.004
52.428,91.342,19.187
52.444,91.348,18.338
52.457,91.354,17.516
52.464,91.353,21.078
51.155,91.662,22.546
53.032,91.566,4.266
53.047,91.572,3.410
53.003,91.550,9.752
53.084,91.580,8.820
53.106,91.586,7.815
53.119,91.592,6.983
53.073,91.572,13.345
53.083,91.579,12.477
53.106,91.584,11.624
53.117,91.590,10.795
53.080,91.581,15.934
53.100,91.586,15.082
53.116,91.592,14.255
53.067,91.573,20.592
53.083,91.580,19.602
53.103,91.585,18.797
53.116,91.591,17.968
51.922,91.934,22.759
55.057,93.167,8.597
55.046,93.213,3.867
55.043,93.168,12.329
55.046,93.177,11.320
55.054,93.165,16.066
55.244,93.107,20.860
55.512,93.217,5.763
55.524,93.209,9.763
55.243,93.393,4.954
55.424,93.420,7.911
55.609,93.264,22.812
55.638,93.349,13.081
55.741,93.319,16.909
55.545,93.451,15.443
55.873,93.463,8.587
55.997,93.381,20.688
55.862,93.499,12.010
56.634,93.748,4.764
56.769,93.658,20.928
56.628,93.713,19.460
56.742,93.778,8.870
56.766,93.786,7.259
56.963,93.744,5.693
56.744,93.781,11.929
58.547,93.610,6.535
58.745,93.624,5.056
58.704,93.605,11.831
58.741,93.622,8.642
58.755,93.626,7.779
58.799,93.645,4.204
58.727,93.611,17.073
58.743,93.620,15.586
58.756,93.624,14.726
58.784,93.633,12.703
58.734,93.610,20.279
58.748,93.615,19.232
58.757,93.620,18.429
58.960,93.701,5.827
58.900,93.677,13.905
58.934,93.692,11.064
59.031,93.730,3.428
58.906,93.669,21.112
59.081,93.745,10.044
59.042,93.730,16.322
59.207,93.791,7.093
59.200,93.785,17.779
59.310,93.827,9.235
59.410,93.863,8.273
59.453,93.880,4.779
59.387,93.856,13.244
59.401,93.860,12.242
59.356,93.836,19.793
59.406,93.861,15.183
59.409,93.857,18.842
59.589,93.930,3.965
59.603,93.935,6.389
59.517,93.898,17.002
59.545,93.913,14.353
59.517,93.895,20.617
59.628,93.940,11.469
59.637,93.945,10.610
59.743,93.983,5.598
59.740,93.982,15.964
60.000,94.074,8.874
60.017,94.084,13.725
60.031,94.088,12.713
60.040,94.084,19.369
60.151,94.176,4.517
60.132,94.120,14.911
60.184,94.140,17.375
60.189,94.134,21.097
60.157,94.154,20.166
60.363,94.204,6.059
60.077,94.358,6.927
60.023,94.452,11.978
60.015,94.472,16.603
59.974,94.565,11.052
59.989,94.583,8.248
59.983,94.623,3.855
59.964,94.676,5.229
59.927,94.660,15.538
59.907,94.717,13.241
59.914,94.777,9.464
59.900,94.743,20.665
59.867,94.822,19.825
59.903,94.915,7.505
60.670,95.059,9.776
60.597,95.120,13.079
60.678,95.110,20.572
60.531,95.330,5.096
60.610,95.306,4.070
60.824,95.239,12.005
60.864,95.260,7.366
60.862,95.161,22.784
60.830,95.258,19.704
61.054,95.212,17.262
61.182,95.252,5.829
61.103,95.307,3.273
61.281,95.297,9.312
61.120,95.368,16.146
61.126,95.457,8.482
61.258,95.430,4.776
61.384,95.334,13.264
61.283,95.420,15.359
61.462,95.353,20.692
62.126,95.595,9.344
62.153,95.608,13.128
62.230,95.737,20.567
62.376,95.692,17.388
62.125,95.825,19.552
62.265,95.850,7.823
62.375,95.706,22.727
62.138,95.936,11.990
62.320,95.934,15.422
63.157,96.042,9.287
63.343,96.057,5.497
63.049,96.221,15.713
63.200,96.231,3.612
63.447,96.106,2.763
63.272,96.240,4.693
63.192,96.287,8.143
63.674,96.154,13.532
63.598,96.207,11.898
63.560,96.248,16.492
63.631,96.278,7.239
63.576,96.243,19.706
63.830,96.234,17.340
63.781,96.263,20.577
63.716,96.441,8.828
63.940,96.269,22.760
63.884,96.353,15.729
64.534,96.533,12.045
64.549,96.602,9.006
64.567,96.597,16.121
64.628,96.669,4.613
64.822,96.571,1.749
64.798,96.589,5.496
64.715,96.546,22.766
64.697,96.660,19.974
65.713,96.134,9.634
65.771,96.158,4.656
65.780,96.158,7.894
65.786,96.163,6.564
65.803,96.171,3.822
65.708,96.181,14.864
65.765,96.154,13.656
65.780,96.156,12.017
65.788,96.162,10.456
65.800,96.166,8.782
65.790,96.159,18.041
65.802,96.162,16.527
65.806,96.165,15.672
65.803,96.162,20.152
65.812,96.162,19.306
65.856,96.180,12.843
65.940,96.220,2.904
66.024,96.241,11.238
66.007,96.236,21.091
66.114,96.273,5.471
66.141,96.279,17.280
66.253,96.323,7.231
66.256,96.323,14.284
66.277,96.330,18.658
66.417,96.376,9.324
66.468,96.399,4.320
66.471,96.396,8.369
66.452,96.388,15.231
66.467,96.397,12.358
66.467,96.397,16.139
66.465,96.400,19.745
58.630,52.643,20.666
58.705,52.578,16.840
58.757,52.599,13.033
58.772,52.694,10.507
58.878,52.760,2.524
58.686,52.595,5.425
58.633,52.520,3.934
57.978,52.027,7.415
57.943,52.196,4.196
57.396,52.285,5.475
57.279,52.185,4.670
57.221,52.162,3.810
57.101,52.007,12.266
56.497,51.808,4.504
55.906,51.608,3.967
55.863,51.677,3.039
55.298,51.269,4.373
55.046,51.262,12.355
52.712,51.270,21.055
52.153,51.069,20.513
52.165,51.074,19.478
49.952,49.167,20.487
49.870,49.439,22.778
49.996,49.301,7.449
49.842,49.276,16.823
49.804,49.163,12.875
49.681,49.416,18.935
49.592,49.105,16.063
49.613,49.153,12.042
45.876,48.025,22.185
45.690,48.059,18.419
45.685,48.056,14.863
45.653,48.110,17.292
45.617,48.243,19.599
45.652,48.175,12.086
45.676,48.130,7.063
45.653,48.199,8.850
45.655,48.184,7.959
45.564,48.375,16.534
45.561,48.423,10.741
45.532,48.484,13.006
44.915,48.456,21.068
44.953,48.479,17.080
44.916,48.472,13.664
44.927,48.477,12.461
44.815,48.423,19.596
44.828,48.430,18.289
44.907,48.476,10.241
44.805,48.426,16.242
44.709,48.404,11.046
44.418,48.279,20.409
44.475,48.310,14.436
44.527,48.339,9.101
44.556,48.352,5.995
